-7.716892731719795506e+00 -6.153870006115391256e+00 1.127439154843911240e+02 1.000000000000000000e+00
-1.011862880311433877e+01 -9.336391105442393368e+00 1.183378182872349242e+02 1.000000000000000000e+00
-6.934465084604353180e+00 -5.963215309540008668e+00 1.244275159762077720e+02 1.000000000000000000e+00
-5.465086644537928251e+00 -4.832484644590334888e+00 1.059041949153377971e+02 1.000000000000000000e+00
-2.342132383880190183e+00 -5.768834299655965836e+00 9.583674821048799686e+01 1.000000000000000000e+00
5.247776376506047002e-01 -8.886945882985591183e+00 5.780114123852310115e+01 1.000000000000000000e+00
7.951132440317457695e-01 -4.229826358667755137e+00 1.046418317195277865e+02 1.000000000000000000e+00
-5.982602674396755305e+00 -4.893261328653821352e+00 1.104883600230733407e+02 1.000000000000000000e+00
-2.059352595362798244e+00 -7.130435900774179991e+00 1.081361952888722442e+02 1.000000000000000000e+00
-8.537048819992175908e+00 -8.838178674195184215e+00 1.183069546673135761e+02 1.000000000000000000e+00
1.985402293055673395e+00 -3.937903071033639790e+00 1.045825353145092009e+02 1.000000000000000000e+00
-9.559822265877963687e+00 -7.139265146320825650e+00 1.121403966966624210e+02 1.000000000000000000e+00
-1.727774240814591167e+01 -1.420227589402280799e+01 5.811885670652597469e+01 1.000000000000000000e+00
7.591094945592375609e+01 3.363438914761865561e+01 3.170698285583783331e+02 1.000000000000000000e+00
-9.721454638522470049e+00 -9.872297849707015516e+00 1.270951646382528963e+02 1.000000000000000000e+00
1.866072111104559283e+00 -3.539364793791373476e+00 1.041976618327593940e+02 1.000000000000000000e+00
-7.024499982001858100e+00 -5.763313607247244619e+00 1.064796607467025353e+02 1.000000000000000000e+00
1.450565560050667280e+00 -4.884525269069645681e+00 1.066659166059398558e+02 1.000000000000000000e+00
1.936228620600841888e+00 -5.504706381912693125e+00 1.123584970764566009e+02 1.000000000000000000e+00
-1.162878654288367741e+01 -9.891830803419528806e+00 1.245936682438039753e+02 1.000000000000000000e+00
-9.954714109276112666e+00 -8.095430745716676313e+00 1.175194118270242853e+02 1.000000000000000000e+00
1.416345600825783313e+00 -9.439480669618667719e+00 1.315208491013001151e+02 1.000000000000000000e+00
6.904027743980428511e+00 -7.127750754316045878e+00 1.127255397953522760e+02 1.000000000000000000e+00
-9.280244626529865926e+00 -1.212838912073472564e+01 1.386983616894537192e+02 1.000000000000000000e+00
-1.531011026537326403e-01 -1.098174139910691238e+01 1.235169745518901436e+02 1.000000000000000000e+00
6.204537487874483226e+00 -6.878010849102345503e+00 1.118826633903406105e+02 1.000000000000000000e+00
2.213865437195638108e+00 -8.868511678255869057e+00 1.122308701232279020e+02 1.000000000000000000e+00
6.712738148575802200e+00 -7.247456345105896425e+00 1.125428039389509252e+02 1.000000000000000000e+00
-7.365852454474595845e+01 -7.332866971360923003e+01 5.245584181584364387e+02 1.000000000000000000e+00
4.329945107057081022e-01 -4.149484927925723987e+00 1.015543977054105653e+02 1.000000000000000000e+00
1.328745718501151751e+00 -1.999476500067585816e+00 7.066676835326279615e+01 1.000000000000000000e+00
2.667175487970260939e+00 -3.946264081949948821e+00 1.051317460777816137e+02 1.000000000000000000e+00
2.337882884765927205e+00 -8.527667232765148597e+00 1.097815415517481483e+02 1.000000000000000000e+00
-4.237409520712513533e+00 -5.075417973198831589e+00 1.003724533341477780e+02 1.000000000000000000e+00
1.060550714009815598e+00 -3.970371392888882411e+00 1.029981202084492793e+02 1.000000000000000000e+00
1.719900023460895877e+00 -8.306855720218868200e+00 1.120202806810652163e+02 1.000000000000000000e+00
-1.716512534287204739e+00 -2.825794891353568872e+00 7.150107249453448333e+01 1.000000000000000000e+00
2.370033476914603643e+00 -7.421617551607529784e+00 1.077800249914154307e+02 1.000000000000000000e+00
-3.364480751071693199e+00 -5.205546818976193535e+00 9.949993519948971255e+01 1.000000000000000000e+00
6.916940747684703628e-02 -1.144534650326447256e+01 1.271819691232129941e+02 1.000000000000000000e+00
9.664838853149280151e-01 -7.737572208537108587e+00 1.080413964934704154e+02 1.000000000000000000e+00
-1.512114824501739285e+01 -1.809681507195330497e+01 1.758532062712903894e+02 1.000000000000000000e+00
9.075382633878081862e-01 -7.928775822322967848e+00 1.269001059178254707e+02 1.000000000000000000e+00
-3.793249721863814727e+01 -3.417154956119482989e+01 2.589151303368005301e+02 1.000000000000000000e+00
9.643725577331728749e-01 -8.535503467805606093e+00 1.123137330607818001e+02 1.000000000000000000e+00
6.121377505009338194e+00 -6.802638316708619293e+00 1.108586810437594465e+02 1.000000000000000000e+00
1.778800768828507461e+00 -9.582890465742046615e+00 1.149440871760427427e+02 1.000000000000000000e+00
-2.486108763838184466e+00 -5.173701584377516483e+00 7.920817797862180498e+01 1.000000000000000000e+00
-1.520620952410626225e+00 -1.142857833244050347e+01 1.205134860004296087e+02 1.000000000000000000e+00
3.064721159021891239e+00 -7.011785121451920588e+01 5.471740037968315846e+02 1.000000000000000000e+00
1.138785294299991868e+00 -3.807548399918932791e+00 1.025231717594672460e+02 1.000000000000000000e+00
-1.897729962724055142e+01 -2.351851052586186697e+01 1.994536292158965978e+02 1.000000000000000000e+00
-1.759313930299704953e+00 -1.101038580160247804e+01 1.184078322352021786e+02 1.000000000000000000e+00
2.043654618635467823e+00 -3.506826945183346922e+00 1.048482181604165930e+02 1.000000000000000000e+00
7.957304513124701550e+00 -7.557354896018559920e+00 1.159585383721031491e+02 1.000000000000000000e+00
7.079894852141663364e+00 -7.107686123000786615e+00 1.141751961930202839e+02 1.000000000000000000e+00
2.467773827455325808e+00 -1.162058024891836894e+01 1.582394291232947410e+02 1.000000000000000000e+00
-3.292471705286236272e+01 -3.419089234087120843e+01 2.519876617841355824e+02 1.000000000000000000e+00
-2.137618874678899417e+01 -2.118337677705154576e+01 1.789178341582006055e+02 1.000000000000000000e+00
-7.710502400136271639e+00 -7.390112459417587765e+00 1.108552200016349047e+02 1.000000000000000000e+00
-2.470250367991835283e+00 -5.587726440185346810e+00 8.987531236127524892e+01 1.000000000000000000e+00
1.256097779806149006e-01 -4.270065380690118317e+00 1.013277624726908641e+02 1.000000000000000000e+00
-3.390908200047439092e+00 -5.142142405805047112e+00 9.945701617703582542e+01 1.000000000000000000e+00
-1.450644261375953015e+01 -5.052062120844854576e+01 5.042882432762324925e+02 1.000000000000000000e+00
7.743400134559902170e+00 -7.907351358470518399e+00 1.143792193994448780e+02 1.000000000000000000e+00
8.082477030573910426e+00 -7.990802951723676273e+00 1.211809930186486639e+02 1.000000000000000000e+00
-1.804960536791719150e+01 -1.659360586378890545e+01 4.554518536480363622e+01 1.000000000000000000e+00
-2.412640423235455689e+00 -5.600206606478099758e+00 9.690060489576565317e+01 1.000000000000000000e+00
-3.455775377217873512e+01 -3.200737968516858700e+01 2.316844113309261672e+02 1.000000000000000000e+00
8.122731203042157233e+00 -7.665336795202781772e+00 1.248527864077831993e+02 1.000000000000000000e+00
-2.460526247878810135e+00 -5.535305562270950830e+00 9.221292669720735091e+01 1.000000000000000000e+00
9.719297427828147420e+02 -7.665438562040935722e+02 9.174903339727776256e+03 1.000000000000000000e+00
-5.650554184253402390e+00 -1.043472031266060718e+01 1.166420351377973930e+02 1.000000000000000000e+00
-4.474694628875136360e+00 -1.063936792984435442e+01 1.214202063920967731e+02 1.000000000000000000e+00
-4.483273572935148721e+00 -4.742289870000894858e+00 9.898700597517988342e+01 1.000000000000000000e+00
9.800723669065453114e-01 -3.920864006258266699e+00 1.028074124269989653e+02 1.000000000000000000e+00
7.053703872996161195e+00 -7.354550556889039470e+00 1.136330673179757440e+02 1.000000000000000000e+00
9.143706813583225568e+00 -8.301716027779997731e+00 1.256599957938920227e+02 1.000000000000000000e+00
-2.421388851195795056e+00 -5.433000781373202415e+00 9.186894395142812186e+01 1.000000000000000000e+00
-2.377745169037236650e+00 -5.314080837584640449e+00 8.828730438100895128e+01 1.000000000000000000e+00
-1.426869564073091823e+01 -1.429047489081063205e+01 1.352370081349722852e+02 1.000000000000000000e+00
-2.571655827726580856e+00 -5.485037285860332013e+00 8.471310603277544260e+01 1.000000000000000000e+00
-1.110074770145407008e+01 -1.426699813211117807e+01 1.537508583775574493e+02 1.000000000000000000e+00
-2.979165239372253193e+00 -4.591347837992866943e+00 1.011470765838125061e+02 1.000000000000000000e+00
1.077162244341668362e+01 -1.025691554726070542e+01 1.580484451514913644e+02 1.000000000000000000e+00
1.354613814347484624e+00 -3.815685518220926387e+00 1.029837059286551550e+02 1.000000000000000000e+00
3.465665205271672988e+00 -5.118838952863283609e+00 1.070277214595915893e+02 1.000000000000000000e+00
-1.548940487338072547e+00 -5.642809989009137439e+00 1.047965732581511418e+02 1.000000000000000000e+00
5.681002436609905892e+00 -6.818292599978158286e+00 1.114522213145547198e+02 1.000000000000000000e+00
3.999288401272941496e+00 -6.232302852588389896e+00 1.080426807818626571e+02 1.000000000000000000e+00
-3.344022367899448511e+00 -5.162347743509554832e+00 7.807164983056298979e+01 1.000000000000000000e+00
8.791614349676828866e+00 -9.436600418754933273e+00 1.527444956800566445e+02 1.000000000000000000e+00
-5.010640598661348477e+00 -5.501536578851484727e+00 1.008495319670216475e+02 1.000000000000000000e+00
-1.614835893016265178e+00 -5.027453912540829073e+00 9.969718817897813778e+01 1.000000000000000000e+00
2.989062173134031219e+00 -4.669189701744701715e+00 1.073138358868081497e+02 1.000000000000000000e+00
6.806462141492388263e+00 -1.231083438052069390e+01 1.741092925889832657e+02 1.000000000000000000e+00
-2.489960698583305820e+00 -5.282161916669180890e+00 8.045522896703536730e+01 1.000000000000000000e+00
1.468908598213466377e+01 -1.183436089251310541e+01 1.675154803432616291e+02 1.000000000000000000e+00
-2.463263889956917030e+00 -5.580818928814347046e+00 9.071203698571679297e+01 1.000000000000000000e+00
1.088382235432065315e+01 -8.728245446500835669e+00 1.316648866704272223e+02 1.000000000000000000e+00
-2.065607931462359659e+00 -3.176531637781220052e+00 6.026814008528256039e+01 1.000000000000000000e+00
1.194610380117898218e+00 -3.935542125439411176e+00 1.027207273658492710e+02 1.000000000000000000e+00
-1.790470485728778982e+00 -4.950449213816261462e+00 9.889263688349059578e+01 1.000000000000000000e+00
-3.754754472114392616e+00 -5.212042378360739470e+00 1.007310518759999951e+02 1.000000000000000000e+00
-1.887237372957683013e+00 -5.111489634472967225e+00 9.937959012959484539e+01 1.000000000000000000e+00
4.146499920598915701e+00 -1.837617042900784758e+00 1.179677965699029727e+02 1.000000000000000000e+00
3.309528594002466129e+00 -4.925602240000489296e+00 1.064208825501083879e+02 1.000000000000000000e+00
-2.375466152512624607e+00 -5.244417255071303074e+00 9.578825348184142285e+01 1.000000000000000000e+00
5.228779722336930114e+00 -6.179137360765425413e+00 1.096737755112157089e+02 1.000000000000000000e+00
-1.890775749120222837e+00 -5.123457932200658149e+00 8.105387282758962897e+01 1.000000000000000000e+00
-4.693353219110909968e+00 -4.817202934902966582e+00 1.005967048210735726e+02 1.000000000000000000e+00
-4.592260441325743514e+00 -4.753030770425062279e+00 9.908494484805551394e+01 1.000000000000000000e+00
-7.386122536468285205e+00 -7.964678564900364854e+00 1.181950502385771387e+02 1.000000000000000000e+00
-2.543012636408514826e+00 -5.462560220066860595e+00 9.672460947904929185e+01 1.000000000000000000e+00
-2.587393910761742966e+00 -5.611878951507863533e+00 8.582732533315440548e+01 1.000000000000000000e+00
7.934690175040717719e+00 -8.034016122598366394e+00 1.202869937727431875e+02 1.000000000000000000e+00
-2.326004898930404519e+00 -5.478575947196093310e+00 9.204138167066136589e+01 1.000000000000000000e+00
-1.734686573552251865e+00 -6.506729041377649736e+00 2.235740965647904659e+02 1.000000000000000000e+00
-4.096544150760100145e+00 -5.296014309286189992e+00 1.007352137888955212e+02 1.000000000000000000e+00
3.536364334737331472e+00 -5.378704932712317976e+00 1.084023834581982300e+02 1.000000000000000000e+00
8.853762874392030469e+00 -8.056193003179066281e+00 1.237359324030690715e+02 1.000000000000000000e+00
1.116780811867144729e+00 -4.003619723626443694e+00 1.031921586279069771e+02 1.000000000000000000e+00
8.552245078291383917e-01 -8.265186461066592827e+00 1.118624265796101866e+02 1.000000000000000000e+00
-4.114592950068504784e+00 -7.036034719192567621e+00 8.016830898665321570e+01 1.000000000000000000e+00
7.868859285620843913e+00 -8.254041974708707485e+00 1.152546580518062029e+02 1.000000000000000000e+00
3.822561914993816146e+00 -5.076071264038164443e+00 1.076013395660728804e+02 1.000000000000000000e+00
-2.623161135583108372e+00 -5.455072632923934073e+00 1.008731545072395761e+02 1.000000000000000000e+00
8.162426136713484937e+00 -8.284381898553069945e+00 1.413549727887436518e+02 1.000000000000000000e+00
-7.200020685218596839e+00 -8.297684802962571382e+00 1.157855584490692138e+02 1.000000000000000000e+00
-2.437924387396688264e+00 -6.354877757641652636e+00 8.867089217305957050e+01 1.000000000000000000e+00
-2.431198476621954985e+00 -2.525308683707887969e+00 1.076155544644226723e+02 1.000000000000000000e+00
4.314525449842902205e+00 -9.365424086764035039e+00 1.314926328869439089e+02 1.000000000000000000e+00
-1.281027071393490928e+02 -1.114308662477396155e+02 6.538127667770417020e+02 1.000000000000000000e+00
5.266114473243401761e+00 -7.019255187017764186e+00 1.123073347043196719e+02 1.000000000000000000e+00
-7.536458761709559973e+00 -7.999708811403865916e+00 1.181331775702038271e+02 1.000000000000000000e+00
4.791227085648504413e+00 -9.179735646799549897e+00 1.332531303687487423e+02 1.000000000000000000e+00
-2.928327022009276082e+00 -5.888509555961435993e+00 8.969817449865928438e+01 1.000000000000000000e+00
-5.903958880309574830e+00 -9.981902014544129287e+00 1.134102874268705250e+02 1.000000000000000000e+00
2.594744282851149109e-01 -4.202247462234664610e+00 1.037627274042427246e+02 1.000000000000000000e+00
6.730985884061624347e+00 -7.370012699580905213e+00 1.139724249815791524e+02 1.000000000000000000e+00
-2.127293431241166211e+00 -5.742976573974098109e+00 8.678125535990409389e+01 1.000000000000000000e+00
7.235930412582465721e+00 -7.251039581986887583e+00 1.131238936499020582e+02 1.000000000000000000e+00
-2.515464908686420031e+00 -5.632961374318756320e+00 8.659107524890060859e+01 1.000000000000000000e+00
-1.775629993540604357e+00 -3.333882766089469651e+00 5.204791219879568587e+01 1.000000000000000000e+00
4.268138636300820465e+00 -1.142823889353840272e+01 1.492596645746727404e+02 1.000000000000000000e+00
-1.141677839142906414e+01 -1.228984350373892731e+01 1.267160845095258566e+02 1.000000000000000000e+00
3.473913317990750399e-02 -4.860920827261055344e+00 1.079005049428062932e+02 1.000000000000000000e+00
-1.885805021490442490e+00 -6.321372705711194584e+00 8.189805825412713602e+01 1.000000000000000000e+00
-2.770884450403126475e+00 -4.741149993171323906e+00 8.514065268986635715e+01 1.000000000000000000e+00
-1.428993999501282630e+01 -1.321006842191225950e+01 1.309342842784034531e+02 1.000000000000000000e+00
-3.881224500120195930e+00 -2.973025589900241794e+00 1.064647507447403285e+02 1.000000000000000000e+00
-2.642778767668787054e+00 -5.315984460109771881e+00 9.582926908326327009e+01 1.000000000000000000e+00
7.718833255139093685e-01 -9.890834587341956308e+00 1.964088635852970128e+02 1.000000000000000000e+00
3.249753017673693734e+00 -4.328670881338888776e+00 1.063898621306472450e+02 1.000000000000000000e+00
-5.871668814268572234e+00 -6.128835266288184869e+00 1.069774460273686856e+02 1.000000000000000000e+00
-2.512131863714290869e+00 -5.554256138704839252e+00 8.785839262809079742e+01 1.000000000000000000e+00
2.638925567794484728e+00 -8.586459765132627098e+00 1.102826495198433605e+02 1.000000000000000000e+00
-8.847881489434456626e+00 -8.870285198916302960e+00 1.321432278933059479e+02 1.000000000000000000e+00
4.009514376265274294e+00 -5.924275897067997398e+00 1.083668858265383932e+02 1.000000000000000000e+00
-8.462784714763371241e+00 -8.254264658194104598e+00 1.131901009131380675e+02 1.000000000000000000e+00
1.242525355832392098e+00 -8.382995586977100899e+00 1.104573337505298838e+02 1.000000000000000000e+00
6.418232231926728204e+00 -7.664352438190575434e+00 1.123672074395083058e+02 1.000000000000000000e+00
-3.371400601616257653e+00 -4.197436434119749649e+00 7.861615969527019843e+01 1.000000000000000000e+00
-5.848141691884307214e+00 -6.958653410543112372e+00 1.150176956597647688e+02 1.000000000000000000e+00
4.226857513503807340e+00 -5.494926199880818096e+00 1.092060827329451342e+02 1.000000000000000000e+00
4.374035496486272656e+00 -8.547988782224665627e+00 1.311268812522593805e+02 1.000000000000000000e+00
-3.136643649279927004e+00 -4.384663051649321908e+00 1.059048316715298483e+02 1.000000000000000000e+00
-6.058882249822221233e+00 -7.271690597147926205e+00 1.159268915556848754e+02 1.000000000000000000e+00
2.659842669466922604e+00 -2.138946067155821085e-01 1.147390459847444362e+02 1.000000000000000000e+00
-8.062929393214998797e+00 -8.418201740620343543e+00 1.139908148724687180e+02 1.000000000000000000e+00
2.562343564313281696e+00 -4.532229318992730072e+00 1.057160921885867708e+02 1.000000000000000000e+00
-4.159175287369760277e+00 -5.044114518990062912e+00 1.002499761200119224e+02 1.000000000000000000e+00
6.191765142243039755e+00 -6.812102373871693040e+00 1.132048664691137390e+02 1.000000000000000000e+00
-2.365242079328903291e+00 -5.419009004106343674e+00 9.244137003262204644e+01 1.000000000000000000e+00
-1.017378649099765653e+01 -3.291684543669116181e+01 4.191043073490169490e+02 1.000000000000000000e+00
-2.488555170403663919e+00 -9.054655370412207915e+00 7.025522326400022166e+01 1.000000000000000000e+00
-5.895268588143653510e+00 -6.539257606242448340e+00 1.097912008858259583e+02 1.000000000000000000e+00
-3.994438759523081028e+00 -5.253394281237881991e+00 1.004673930290183961e+02 1.000000000000000000e+00
7.112273167874686663e+00 -6.819517003776056185e+00 1.127999903617154729e+02 1.000000000000000000e+00
-2.780595275153130430e+00 -3.971103118583620084e+00 7.725497249216954287e+01 1.000000000000000000e+00
-1.877402225140478942e+00 -8.056799542148697313e+00 1.228610117475993206e+02 1.000000000000000000e+00
-4.123980190920367939e+00 -4.997475197290281557e+00 1.006516976627291058e+02 1.000000000000000000e+00
1.833465039502409466e+00 -8.972454821266049763e+00 1.157932692206593970e+02 1.000000000000000000e+00
6.514450575585137848e+00 -7.154037792105978788e+00 1.128536268985877200e+02 1.000000000000000000e+00
-5.358572014748572698e-01 -4.978405734381650127e+00 1.060209589770910981e+02 1.000000000000000000e+00
-4.335301701722385381e+00 -4.869621073531094524e+00 1.006769666675133408e+02 1.000000000000000000e+00
3.090914912908343304e+00 -3.051920423950449379e+00 1.076491198033996710e+02 1.000000000000000000e+00
-8.738910252813888446e-01 -4.679949357734450643e+00 2.047495439327958309e+02 1.000000000000000000e+00
3.957332416089646365e+00 -6.112967081560150007e+00 1.082912672121635893e+02 1.000000000000000000e+00
-2.448051625212854354e+00 -4.646754633834517811e+00 7.465909306156578396e+01 1.000000000000000000e+00
-6.056641485135910941e+00 -7.334519618613033920e+00 1.142091224633040270e+02 1.000000000000000000e+00
7.396082764363177020e+00 -8.022429735770934656e+00 1.133571344154601661e+02 1.000000000000000000e+00
8.831235174024257617e+00 2.685422839598103018e+00 1.544370730015550919e+02 1.000000000000000000e+00
-4.129473646087632943e+01 -3.556051717091867914e+01 2.672289820662190323e+02 1.000000000000000000e+00
-3.662973448774967888e+00 -5.255624376899412198e+00 1.008244679204971419e+02 1.000000000000000000e+00
-2.469935072187301905e+00 -5.536549815097698612e+00 8.702813092629810399e+01 1.000000000000000000e+00
1.266664579797325274e+00 -1.575150039734284579e+00 1.150091412670108184e+02 1.000000000000000000e+00
4.076586005298356241e+00 -5.984873901042371713e+00 1.088843637720835318e+02 1.000000000000000000e+00
-2.370995445130356760e+00 -5.252555315635659916e+00 9.628809606858722248e+01 1.000000000000000000e+00
-1.253035190696855672e+01 -1.330380259574847912e+01 1.324209959136168493e+02 1.000000000000000000e+00
6.373621520673136587e+00 -7.554493090634130326e+00 1.136062898357365611e+02 1.000000000000000000e+00
-6.205135289646085184e+00 -7.798719135448219042e+00 1.136157218792409225e+02 1.000000000000000000e+00
-2.747531756239592227e+00 -4.954956616827971949e+00 8.323904062586875341e+01 1.000000000000000000e+00
-2.316917500608626224e+00 -5.351293531185745245e+00 8.088728316041921573e+01 1.000000000000000000e+00
3.880805827101120098e+00 -5.497648957197330155e+00 1.095182433370153490e+02 1.000000000000000000e+00
-3.626648621948235007e+00 -3.586421057931358458e+00 1.119847048298860130e+02 1.000000000000000000e+00
-5.312384940483906526e+00 -6.710964535198293390e+00 1.103540563833335000e+02 1.000000000000000000e+00
-2.678525914491741933e+00 -4.757929517522124563e+00 7.884084148973835227e+01 1.000000000000000000e+00
-1.982601428287817935e+00 -5.996883760974022870e+00 9.927778228167542807e+01 1.000000000000000000e+00
-7.562996107807957280e+00 -8.377875700130029912e+00 1.150586638665143937e+02 1.000000000000000000e+00
-4.256792646994849605e+00 -5.163897613882214799e+00 1.015489308658194290e+02 1.000000000000000000e+00
-8.096566513312236424e+00 -9.247105728065280417e+00 1.230053906842459241e+02 1.000000000000000000e+00
1.774484280834310201e+00 -4.297483804221229775e+00 1.045905411308833379e+02 1.000000000000000000e+00
-1.929577301556376057e+01 -1.958009655267663973e+01 1.888976216031634294e+02 1.000000000000000000e+00
-5.969733045642093394e+00 -9.718972279160709604e+00 1.111687619559592832e+02 1.000000000000000000e+00
2.901253492132268796e+00 -4.572968278268408682e+00 1.072395610657894736e+02 1.000000000000000000e+00
-4.746723351348430597e+00 -5.317707551504856411e+00 1.027950699744284719e+02 1.000000000000000000e+00
-4.496963707566450807e+00 -4.691143892848852914e+00 9.899516620795829169e+01 1.000000000000000000e+00
8.221634272729223536e-01 -4.515350036382196564e+00 1.035139731494051318e+02 1.000000000000000000e+00
-4.546684178698810541e+01 -5.094852087174687227e+01 3.742579821681966337e+02 1.000000000000000000e+00
1.115432010791817197e+00 -2.873400600605458877e+00 1.067938340844842884e+02 1.000000000000000000e+00
-2.337429913961614147e+01 -1.917219110025875395e+01 3.863053962459076729e+01 1.000000000000000000e+00
-4.942996337396535544e+00 -3.382061250128921870e+01 3.083003917978215327e+02 1.000000000000000000e+00
-3.660279077019019667e+00 -5.017579893119137324e+00 1.008529975059723114e+02 1.000000000000000000e+00
3.784806389167123530e+00 -5.089918139338684533e+00 1.065778003471258302e+02 1.000000000000000000e+00
-8.685704239682843664e+00 -8.363256596303678236e+00 1.234931797538377651e+02 1.000000000000000000e+00
-9.331143766435095799e+00 -9.076244280929586239e+00 1.162874125424259120e+02 1.000000000000000000e+00
-9.134935530687984695e+00 -7.954824073647757565e+00 1.119173078435432984e+02 1.000000000000000000e+00
-1.603179249876292012e+00 -5.405459964259769379e+00 1.009791637295291196e+02 1.000000000000000000e+00
-2.035716252268025883e+00 -5.415105434118845373e+00 8.881624632939383446e+01 1.000000000000000000e+00
-4.756282741531491887e+00 -4.800457730009304314e+00 1.009912687831229761e+02 1.000000000000000000e+00
-6.623463823337543133e+00 -7.676905186468431452e+00 1.166654528958927841e+02 1.000000000000000000e+00
-7.412617391670727862e+00 -6.847231748501131143e+00 1.077307508653878472e+02 1.000000000000000000e+00
9.325206053120462801e-01 -3.702453787794692808e+00 1.071724793274321001e+02 1.000000000000000000e+00
6.325105124822220759e+00 -9.914870137175190834e+00 1.470222969032916467e+02 1.000000000000000000e+00
-4.096900580712889095e+00 -2.840244566325575981e+00 5.958512829676637068e+01 1.000000000000000000e+00
-1.346847128457181464e+00 -4.964270718465545684e+00 1.005590254609550982e+02 1.000000000000000000e+00
-6.590972862062582038e+00 -6.602181948188563965e+00 1.071958664117033635e+02 1.000000000000000000e+00
-8.473782717815254273e+01 -8.913131382262417901e+01 6.017303456172220422e+02 1.000000000000000000e+00
-4.665667184288665226e+00 -4.780573185149537885e+00 1.001629428094466334e+02 1.000000000000000000e+00
-2.532386790567530799e+00 -6.286354237013728863e+00 1.222036419074262170e+02 1.000000000000000000e+00
-4.999419686046501887e+00 -5.184901575245167038e+00 1.001850010118319574e+02 1.000000000000000000e+00
-4.696951476381616253e+00 -5.291477026750041723e+00 1.022678797093179810e+02 1.000000000000000000e+00
-8.460514553214489197e+00 -9.493275916496086708e+00 1.240256997559330756e+02 1.000000000000000000e+00
3.971026237048068674e-01 -4.105816713396710504e+00 1.040669525939890576e+02 1.000000000000000000e+00
-3.786149190796119779e+00 -4.779413487818603201e+00 9.882539627837989826e+01 1.000000000000000000e+00
8.626105777114549955e-01 -3.903488558915401363e+00 1.011249120683543055e+02 1.000000000000000000e+00
-1.453749719715972999e+00 -1.276231277107146056e+01 1.362051660988202855e+02 1.000000000000000000e+00
-2.074498468262977457e+00 -3.501404170748324329e+00 1.655810435196782180e+02 1.000000000000000000e+00
-5.370254937792768857e+00 -5.986940724087396859e+00 1.074305821764940418e+02 1.000000000000000000e+00
-4.576917682591679082e+00 -4.718649223726579578e+00 1.000784904438705780e+02 1.000000000000000000e+00
-3.858339366008543880e+00 -6.874988982529208315e+00 8.287115199048669467e+01 1.000000000000000000e+00
-1.355781225821097280e+01 -1.424229878959251394e+01 1.387422130470257855e+02 1.000000000000000000e+00
3.334439551991163153e+00 -4.926638919166288488e+00 1.072771859873399336e+02 1.000000000000000000e+00
-5.351746319564471221e+00 -7.536445416344833781e+00 8.245082609591641187e+01 1.000000000000000000e+00
-1.435491198549223357e+00 -4.723862413698296514e+00 7.186920449832675217e+01 1.000000000000000000e+00
-7.767923795642132312e+00 -7.482018208781539670e+00 1.100090643123397882e+02 1.000000000000000000e+00
-2.777623066943267549e+00 -5.616029332071133418e+00 1.040976227956747096e+02 1.000000000000000000e+00
7.936035524096978655e+00 5.594997881011886109e-01 1.285617949853802031e+02 1.000000000000000000e+00
-6.165442242600017941e+00 -6.417130625915551612e+00 1.104749911665952311e+02 1.000000000000000000e+00
-2.448226055891749020e+00 -5.578965274439813271e+00 9.065147362134787556e+01 1.000000000000000000e+00
5.590993383918851922e-01 -8.777404189987121796e+00 1.131648163073816278e+02 1.000000000000000000e+00
-4.876634766465594240e+00 -5.734600111152690971e+00 1.049885510059772997e+02 1.000000000000000000e+00
-8.325543561149755689e+00 -7.862982663055715804e+00 1.154231229377034538e+02 1.000000000000000000e+00
4.343897056412850510e+00 -5.452493364462267955e+00 1.076210287684396576e+02 1.000000000000000000e+00
3.645649467348086432e+02 3.054653811106609282e+02 1.530606627604336609e+03 1.000000000000000000e+00
1.236179525446516436e+00 -4.531796498057679479e+00 1.059077253458680019e+02 1.000000000000000000e+00
-2.292277601622085825e+00 -5.626803946857942051e+00 9.544654985986933582e+01 1.000000000000000000e+00
-6.624358229059742698e+00 -7.372728671759283259e+00 1.118046537648749847e+02 1.000000000000000000e+00
2.352220926777565779e+00 -4.900447132178105569e+00 1.054270230702783380e+02 1.000000000000000000e+00
1.830267606888105400e-02 -4.457047619165948937e+00 1.046946019933703553e+02 1.000000000000000000e+00
-6.180049527998600745e+00 -6.553620826170106106e+00 1.083587366014924953e+02 1.000000000000000000e+00
7.365784853433162027e+01 3.542476862847413344e+01 3.916502929720722932e+02 1.000000000000000000e+00
1.472144847291532832e+00 -5.451411187108631928e+00 1.116144589841632069e+02 1.000000000000000000e+00
3.836538234075308917e+00 -1.341781985034433911e+00 1.091264436575136756e+02 1.000000000000000000e+00
-4.422222956281085082e+00 -4.861261534324218481e+00 1.000648305926130206e+02 1.000000000000000000e+00
8.745302283560979717e+00 3.172755987891642815e-01 1.312679469826137790e+02 1.000000000000000000e+00
-2.431778750319007809e+00 -4.426003162966466675e+00 8.239696924133892253e+01 1.000000000000000000e+00
1.903006850983722797e+00 -6.960555035002892410e+00 1.193791483583336799e+02 1.000000000000000000e+00
2.127161689042599946e+00 -8.971602445977744367e+00 1.123118666688240523e+02 1.000000000000000000e+00
1.478812270473977675e+00 -3.899772483277181401e+00 1.034637175022773476e+02 1.000000000000000000e+00
2.933671022469024336e+00 -5.315083697598529611e+00 1.076542869551212647e+02 1.000000000000000000e+00
-2.419055843926958271e+00 -5.493854130997255503e+00 9.310763790166278397e+01 1.000000000000000000e+00
2.288376175003408175e+00 -4.532242345198279843e+00 1.066364511163240110e+02 1.000000000000000000e+00
-2.388481944371513954e+00 -5.235834164480624331e+00 9.641284688266119929e+01 1.000000000000000000e+00
2.812915568535688582e+00 -1.852581786881153825e+00 1.160626246618554660e+02 1.000000000000000000e+00
-2.764015501396142049e+00 -5.663465018554216357e+00 1.079288327735351061e+02 1.000000000000000000e+00
5.375292456089309390e+00 -6.305768138550163826e+00 1.099504636241488953e+02 1.000000000000000000e+00
-7.306675051159815304e+00 -7.178655215341259499e+00 1.088574543489267796e+02 1.000000000000000000e+00
2.190409790657289477e+02 1.983030572215229768e+03 1.008034129724934064e+04 1.000000000000000000e+00
3.671365141621497852e+00 -5.842688043621034666e+00 1.080982256946762590e+02 1.000000000000000000e+00
-5.522922962313603357e+00 -7.076995644327195301e+00 7.982712523397852067e+01 1.000000000000000000e+00
-4.296823420760635059e+00 -4.794796606403647132e+00 9.977547024008758569e+01 1.000000000000000000e+00
-7.833286545674423174e+00 -6.976907969379047003e+00 1.092860284614008464e+02 1.000000000000000000e+00
-7.369094372412958727e+00 -7.196252661874042111e+00 1.252111715201227753e+02 1.000000000000000000e+00
-2.468611251699774467e+00 -3.888894018565272948e+00 7.131977071049641381e+01 1.000000000000000000e+00
-7.090836637616187765e+00 -6.577153356119183059e+00 1.079159475488392275e+02 1.000000000000000000e+00
-2.415692486439049880e+00 -5.461182834093370353e+00 9.397806291666807965e+01 1.000000000000000000e+00
8.531273470048024166e-01 -9.268734622471324514e+00 1.261501357803212215e+02 1.000000000000000000e+00
-9.786843992912447332e-01 -1.048291192604882838e+01 1.214752372303904195e+02 1.000000000000000000e+00
2.618416868416135301e+00 -4.279232991204300340e+00 1.050817922225446921e+02 1.000000000000000000e+00
-9.912962535825332822e+00 -9.493646486412632868e+00 1.197519968706461242e+02 1.000000000000000000e+00
4.559967111300328391e+00 -6.270408852338326788e+00 1.086500196226498502e+02 1.000000000000000000e+00
-4.772090797521317818e+00 -6.306370874283956596e+00 1.094091874998380689e+02 1.000000000000000000e+00
-2.298879943188520514e+00 -5.223901327067366651e+00 7.861829427145265470e+01 1.000000000000000000e+00
-5.338627661617995734e+00 -7.292630190393753153e+00 8.377102479965537896e+01 1.000000000000000000e+00
6.171597350672367588e-01 -4.213732948503274400e+00 1.038801091215279797e+02 1.000000000000000000e+00
-6.927461125027662980e+00 -5.529370860986206004e+00 1.053967078506472888e+02 1.000000000000000000e+00
-3.757573877510262950e+00 -1.036425637642645547e+01 1.139016469013617296e+02 1.000000000000000000e+00
-6.799705988396174128e+00 -5.737811337871146833e+00 1.051776527124100511e+02 1.000000000000000000e+00
-4.705727674139743577e+00 -5.353233085477492104e+00 1.024181820768935438e+02 1.000000000000000000e+00
-1.106464436441043730e+01 -9.587130349584619182e+00 1.402096531313996195e+02 1.000000000000000000e+00
6.585666153570998160e-01 -4.229433309514120332e+00 1.035097507824780365e+02 1.000000000000000000e+00
-1.561430574028101759e-01 -1.033674743386544748e+01 1.202630227602914061e+02 1.000000000000000000e+00
-2.621061780285705911e+00 -4.864320538126712279e+00 8.240488666049891719e+01 1.000000000000000000e+00
-7.392373835196121012e-01 -4.970342802344556610e+00 1.020147990642228280e+02 1.000000000000000000e+00
-3.296180118958714989e+00 -4.371995258494330905e+00 7.917391272380622524e+01 1.000000000000000000e+00
-4.271713359548222400e+00 -4.849714662353396655e+00 9.957665250940191015e+01 1.000000000000000000e+00
4.821093195498912465e+00 -6.139620578043992971e+00 1.092457810259867728e+02 1.000000000000000000e+00
-3.496487210942492485e+00 -3.674707896250383410e+00 7.606737126733314369e+01 1.000000000000000000e+00
1.845155012530568683e+00 -4.788229607148047684e+00 1.059223900375764629e+02 1.000000000000000000e+00
-5.697016330251766902e+00 -8.000833987810542780e+00 7.736959146641208918e+01 1.000000000000000000e+00
-3.708652072438416880e+00 -5.828581807259295644e+00 8.511580643701920224e+01 1.000000000000000000e+00
-1.476864882490542152e+00 -5.762275344966393043e+00 1.039968498512095323e+02 1.000000000000000000e+00
2.288689079363115830e+00 -3.993439023138755761e+00 1.047213269321607356e+02 1.000000000000000000e+00
4.127910777663720943e+00 -1.267875883301277895e+01 5.339908433800905385e+01 1.000000000000000000e+00
-8.291025047942625292e+00 -8.627043806704906004e+00 1.165453120099448086e+02 1.000000000000000000e+00
8.714864703747039476e-01 -3.790496899060529223e+00 1.016334282108742002e+02 1.000000000000000000e+00
-7.207583859228634537e+00 -7.203705411425126215e+00 1.098466308142662058e+02 1.000000000000000000e+00
-5.344497998154064788e+00 -6.184473213452515772e+00 1.097765996399149486e+02 1.000000000000000000e+00
4.793865195755154573e+00 3.263578460259846659e-01 1.270919096651795570e+02 1.000000000000000000e+00
-2.364750548477492664e+00 -5.571887886629353304e+00 9.149426008433606228e+01 1.000000000000000000e+00
-2.385719472748505154e+00 -4.293615304433100022e+00 7.210524444437119485e+01 1.000000000000000000e+00
-2.611063651807268684e+02 -1.633058019991409253e+02 8.388154494744895828e+02 1.000000000000000000e+00
-3.903258176833265480e+00 -5.453239754259814553e+00 1.023812021952228548e+02 1.000000000000000000e+00
-7.404468556704569160e+00 -6.293367682140623032e+00 1.069309731529168062e+02 1.000000000000000000e+00
-6.714070714420803832e+00 -5.639731315046847548e+00 1.048640124575059644e+02 1.000000000000000000e+00
-1.452830393807972342e+01 -9.907224584500500697e+00 2.746133169523602646e+01 1.000000000000000000e+00
2.067834063992903371e+00 -3.430796136206552660e+00 1.092234510281862896e+02 1.000000000000000000e+00
3.389896456367015531e+00 -5.167757207182192225e+00 1.078494906617125082e+02 1.000000000000000000e+00
6.815323992600287539e+00 -7.345408606207994850e+00 1.194405384801136876e+02 1.000000000000000000e+00
2.463019894155798184e+01 1.677027456792972160e+01 2.047517383573540428e+02 1.000000000000000000e+00
-4.410010378347668514e+00 -4.828299558661869995e+00 9.976488979061622331e+01 1.000000000000000000e+00
-2.386566609901841218e+00 -5.181545721880495670e+00 8.055907009666815100e+01 1.000000000000000000e+00
-2.512914067401014862e+00 -5.328125531682958105e+00 8.968565795089564574e+01 1.000000000000000000e+00
-1.173056090132738305e+01 -1.265896312299979520e+01 1.274268141105622050e+02 1.000000000000000000e+00
4.190938041183215113e+00 -5.904264441072714753e+00 1.081591261474399488e+02 1.000000000000000000e+00
-3.247322095565841948e+00 -5.548858660955308331e+00 8.406870712640542820e+01 1.000000000000000000e+00
-1.145879775238434384e+01 -1.136381210136251596e+01 6.812055678761072386e+01 1.000000000000000000e+00
-9.400405281169906146e+00 -8.850662983427348252e+00 1.158808357958308193e+02 1.000000000000000000e+00
-8.360194736230580403e+00 -1.052300343619369194e+01 7.098862027568017652e+01 1.000000000000000000e+00
-1.459337286376050785e-02 -3.052072423996670114e+00 1.091694232859251059e+02 1.000000000000000000e+00
3.704761900917981521e+00 -5.413555535272291941e+00 1.107673747521449314e+02 1.000000000000000000e+00
-4.488676162720373952e+00 -4.773039131121574741e+00 9.990898592341311257e+01 1.000000000000000000e+00
-1.524228682038884841e+00 -4.918471420534523020e+00 1.002699984903808712e+02 1.000000000000000000e+00
-2.425960583009975302e+00 -5.477149964119318426e+00 9.361059830904081025e+01 1.000000000000000000e+00
-1.365140489879704155e+00 -4.584865814348906277e+00 9.782038487667702498e+01 1.000000000000000000e+00
4.024990696703784288e+00 -5.638940539026233267e+00 1.078720244834328525e+02 1.000000000000000000e+00
8.726444522175993868e+00 -7.472781631341378628e+00 1.234848256791474199e+02 1.000000000000000000e+00
-5.659968705931061272e+00 -6.003528876617989951e+00 1.066760362346874444e+02 1.000000000000000000e+00
7.737316097632278122e+00 -7.272151178354936185e+00 1.223549557519958739e+02 1.000000000000000000e+00
2.646467052782966345e+00 -3.416452124017058889e+00 1.066695473755225976e+02 1.000000000000000000e+00
-6.569141407420954870e+00 -5.842645880713663864e+00 1.050182049838475535e+02 1.000000000000000000e+00
-2.818745256178472491e+00 -5.892300330685486642e+00 1.127737188649759474e+02 1.000000000000000000e+00
-9.042474205415475197e+00 -8.584115214091770696e+00 1.155943814796257243e+02 1.000000000000000000e+00
2.385177206698688490e+00 -3.025309766805039935e+00 1.118205042431410163e+02 1.000000000000000000e+00
-2.375343953171883626e+00 -5.573321624815624098e+00 9.194848080952046132e+01 1.000000000000000000e+00
-7.485677599796467518e+00 2.362650944963247124e-01 1.320197272505006651e+02 1.000000000000000000e+00
5.126484329193105260e+00 -5.343073930628107426e+00 1.091965762890189353e+02 1.000000000000000000e+00
-7.514107206645004311e+00 -6.159365042744060048e+00 1.082800423804914800e+02 1.000000000000000000e+00
2.021971328223368669e+00 -5.410238622633713135e+00 1.129204329146489982e+02 1.000000000000000000e+00
-2.730084717661788840e+00 -4.877656528174779460e+00 8.130429413936809624e+01 1.000000000000000000e+00
-5.415914662692732584e+00 -6.233663739409469606e+00 1.092178703139315559e+02 1.000000000000000000e+00
-6.370752747099169833e-01 -4.803868417939288094e+00 1.026686529164021096e+02 1.000000000000000000e+00
-1.807445933159095963e+00 -6.008900726400907999e+00 1.019059055617701688e+02 1.000000000000000000e+00
2.471817291662308236e-01 -4.698865520254428496e+00 1.095285837639049475e+02 1.000000000000000000e+00
2.538281130131365249e+00 -4.768581546820659156e+00 1.058877529580703651e+02 1.000000000000000000e+00
2.802013981836709799e+00 -6.970130230132483007e+00 1.222015465277134894e+02 1.000000000000000000e+00
-5.953116606859488735e-01 -4.468285175544790988e+00 1.028912107813142569e+02 1.000000000000000000e+00
-2.005479989371005800e+00 -6.176275776704612142e+00 8.865999837811469320e+01 1.000000000000000000e+00
-5.056938978319032607e+00 -8.053345872350774926e+00 7.438999357882232744e+01 1.000000000000000000e+00
-2.429670542414553047e+00 -5.493876104109763681e+00 9.324936059223801976e+01 1.000000000000000000e+00
-3.906212675520398747e+00 -5.197093041276707126e+00 1.003150556232020989e+02 1.000000000000000000e+00
-3.813592062637670033e+00 -4.829412595608756575e+00 9.872540517578406138e+01 1.000000000000000000e+00
-5.146387264794960892e+00 -5.956866700849997365e+00 1.059111627135524145e+02 1.000000000000000000e+00
-6.072318200250188092e+00 -6.078139817769264042e+00 1.078541569274105569e+02 1.000000000000000000e+00
-1.903613388662430461e+00 -5.295531966462790230e+00 9.899025932300101260e+01 1.000000000000000000e+00
-2.690568664853227876e+00 -4.858331698209132909e+00 9.997807124218481079e+01 1.000000000000000000e+00
8.915935291908017035e+00 -7.248023985593142093e+00 1.231801130904805746e+02 1.000000000000000000e+00
-2.372777113184731057e+00 -5.490352314409578049e+00 9.267977238668611051e+01 1.000000000000000000e+00
2.876856620000334264e+00 -4.311131811188272600e+00 1.054777008216816654e+02 1.000000000000000000e+00
-7.630024553114625796e+00 -7.150621960812099331e+00 1.103341547674910714e+02 1.000000000000000000e+00
2.071145008977282487e+00 -2.193887363633032273e+00 1.088554440840543123e+02 1.000000000000000000e+00
-7.247889996863191797e+00 -6.929898751945438029e+00 1.092642691979083764e+02 1.000000000000000000e+00
4.382189197840789419e+00 -5.058322601728812984e+00 1.094834233262299819e+02 1.000000000000000000e+00
-2.094246356791980546e+01 -1.656505238107598643e+01 3.431703258400206380e+01 1.000000000000000000e+00
-2.603213206048067718e+00 -5.305106921465392311e+00 9.617302059812389814e+01 1.000000000000000000e+00
-8.433562817544030921e+00 -7.688208462302846158e+00 1.113531573509611547e+02 1.000000000000000000e+00
4.826921698778714465e+00 1.777695615230054482e+00 1.357474156517493498e+02 1.000000000000000000e+00
4.399557303162924704e+00 -3.292135833416300006e+00 1.363565830702598021e+02 1.000000000000000000e+00
-4.972402395970122235e+00 -5.612125617318858062e+00 1.009649086768170179e+02 1.000000000000000000e+00
-2.614568308809085195e+00 -5.576057616540865958e+00 9.928909855159888309e+01 1.000000000000000000e+00
-6.168545560015031626e+00 -5.937744505713807186e+00 1.076906580211542348e+02 1.000000000000000000e+00
-4.426443777897669740e+00 -6.163339775290361366e+00 1.059391191289297183e+02 1.000000000000000000e+00
-2.426238864031432740e+00 -5.491133628396568156e+00 9.345443028001189134e+01 1.000000000000000000e+00
-3.652300334455755859e+00 -5.157871193951137911e+00 9.962509171165062583e+01 1.000000000000000000e+00
7.258955458031513430e+00 -8.648501944260104324e+00 1.392216960414643268e+02 1.000000000000000000e+00
5.821323192270755342e+00 -7.069851738411759179e+00 1.110571132290934599e+02 1.000000000000000000e+00
-3.802111263456220414e-01 -6.781827498281791655e+00 1.023765364209292983e+02 1.000000000000000000e+00
-2.108112313736459242e+01 -2.355144138768448769e+01 2.080904593157379452e+02 1.000000000000000000e+00
-2.633062372335380763e-01 -7.017801901783385254e+00 1.023783993785950912e+02 1.000000000000000000e+00
-1.749235407706545953e+00 -6.158702403247620971e+00 1.005910656422747707e+02 1.000000000000000000e+00
-2.029257357691080177e+00 -6.898376435398922979e+00 1.012918630913002289e+02 1.000000000000000000e+00
-2.517160141374582327e+00 -5.919776369210643097e+00 9.764039357429234656e+01 1.000000000000000000e+00
-1.838065420738604416e+01 -2.022551248763256382e+01 1.907014506577022530e+02 1.000000000000000000e+00
-2.054948469913696130e+01 -2.286162433364305713e+01 1.999926229876033403e+02 1.000000000000000000e+00
-9.571803914966016791e+00 -1.263389974398358717e+01 1.407525564817555903e+02 1.000000000000000000e+00
-2.021606641754756684e+00 -5.111193984283534775e+00 1.188140742062292645e+02 1.000000000000000000e+00
-2.375877976798965285e+00 -5.339488429772035083e+00 9.276923814865284612e+01 1.000000000000000000e+00
-2.204255811272626264e+00 -5.312076238714141141e+00 9.294545026963693601e+01 1.000000000000000000e+00
1.264513519133543484e+00 1.993374650725547037e-01 4.728312521852881645e+01 1.000000000000000000e+00
6.815704289897627888e+00 -8.813370841231941810e+00 1.307939634379052336e+02 1.000000000000000000e+00
-3.807745977284373140e+01 -3.432558119422988341e+01 2.608170257801883736e+02 1.000000000000000000e+00
-1.827517922244931814e+00 -4.569264027754930346e+00 7.187261480703250527e+01 1.000000000000000000e+00
-2.360268332841376271e+00 -5.230216426441579358e+00 9.157114683345983508e+01 1.000000000000000000e+00
4.585976775162709629e+00 -6.633197606407275515e+00 1.088514278721494293e+02 1.000000000000000000e+00
-1.648865205277746426e+01 -2.084871751433884413e+01 1.847164828939664005e+02 1.000000000000000000e+00
-1.959030913147597142e+00 -3.518204481879212420e+00 7.541685498972510970e+01 1.000000000000000000e+00
5.373638354101863079e+00 -7.310647319709492997e+00 1.141196289558811543e+02 1.000000000000000000e+00
-5.698282913576908193e+00 -4.647922060142879452e+00 1.059435201840559984e+02 1.000000000000000000e+00
-2.543211083156820251e+01 -2.538749974795411291e+01 2.005194851222167927e+02 1.000000000000000000e+00
-8.591399423537477986e+00 -8.483796201054079944e+00 1.241656202048523028e+02 1.000000000000000000e+00
4.242335169695405028e+00 -7.149768981764794695e+00 1.093961786186469567e+02 1.000000000000000000e+00
5.788519169538997922e+00 -7.112744096803698568e+00 1.146911744540419278e+02 1.000000000000000000e+00
5.468864110386653099e-01 -6.642563799363790267e+00 1.024701560313422561e+02 1.000000000000000000e+00
-4.400909528354963740e+00 -8.523074535830421183e+00 1.078313965166233714e+02 1.000000000000000000e+00
-3.771084123726356552e+01 -3.459210400185010315e+01 2.529170873205955559e+02 1.000000000000000000e+00
4.401931789095536729e+00 -6.832105538808870726e+00 1.139184070102847386e+02 1.000000000000000000e+00
-5.116153481323258312e+00 -4.311282702929664090e+00 1.091602418984546858e+02 1.000000000000000000e+00
-1.712661491481585863e+00 -6.041406196784898874e+00 1.006379619896318189e+02 1.000000000000000000e+00
4.068533653529120109e+00 -6.933495138158351168e+00 1.099417751446712543e+02 1.000000000000000000e+00
4.655938655762066780e+00 -7.171503242089517727e+00 1.139691701397911601e+02 1.000000000000000000e+00
4.924328782708418117e+00 -6.616238548410216858e+00 1.092206327275860502e+02 1.000000000000000000e+00
-2.870611734294767459e+01 -3.017945122629260268e+01 2.307373906235208096e+02 1.000000000000000000e+00
-2.050405450483160585e+00 -5.455728486276711031e+00 1.144996380906971893e+02 1.000000000000000000e+00
2.743051532499827694e+00 -5.121274565100447873e+00 1.054458589413278276e+02 1.000000000000000000e+00
4.548330069909045648e+00 -7.041945529538836901e+00 1.138028577686931442e+02 1.000000000000000000e+00
-1.468314202403748325e+00 -6.184119863834713016e+00 1.022950930724366430e+02 1.000000000000000000e+00
-2.569364678362561438e+00 -7.470316847317425513e+00 1.036449152617567080e+02 1.000000000000000000e+00
-1.880530961033943171e+01 -2.282497590279724164e+01 2.014283121288870859e+02 1.000000000000000000e+00
-1.327003577621318042e+00 -4.275964625463005042e+00 5.984680076513119218e+01 1.000000000000000000e+00
-1.264752052680454319e+00 -6.715797688447873171e+00 1.012966326413410059e+02 1.000000000000000000e+00
-1.491608712509781753e+01 -1.664266984186650333e+01 1.574953963487974420e+02 1.000000000000000000e+00
7.435479134840845994e+00 -8.967512991505923736e+00 1.418445731616447176e+02 1.000000000000000000e+00
5.456327598432102022e+00 2.648139648738723650e+00 1.272299672898639074e+02 1.000000000000000000e+00
7.325660657168744372e+00 4.042756484114257809e+00 1.434533473596285660e+02 1.000000000000000000e+00
-2.893412782902859970e+00 -3.998983243419404143e+00 7.626722209161293620e+01 1.000000000000000000e+00
-1.093173316173399101e+01 -1.179946001944021639e+01 1.235944608100895579e+02 1.000000000000000000e+00
-7.755342545406866961e-01 -5.915861301835461106e+00 3.960906147435521518e+01 1.000000000000000000e+00
-2.228666091084911649e+00 -6.432973972669037366e+00 9.927830038994916606e+01 1.000000000000000000e+00
-3.445163911734633544e+00 -8.065501483029192897e+00 1.076165969932250590e+02 1.000000000000000000e+00
-2.387124097050413063e+00 -5.580906045479963495e+00 9.676900705886697551e+01 1.000000000000000000e+00
-5.940042640391114404e+00 -4.521320709588509068e+00 1.133010110379006079e+02 1.000000000000000000e+00
-6.304439754519904904e-01 -4.361218965406886028e+00 5.381502304413812254e+01 1.000000000000000000e+00
-7.446110428483637023e+00 -5.562717559570702797e+00 1.655158596923866128e+02 1.000000000000000000e+00
-2.923670406739251160e+00 -4.429412031563905394e+00 8.239429348085455729e+01 1.000000000000000000e+00
-2.052994667946125418e+01 -2.374681186571489278e+01 2.005292694650714225e+02 1.000000000000000000e+00
2.270434366406059168e-01 -4.786158536623804416e+00 1.091334091817555958e+02 1.000000000000000000e+00
-2.087989061382041101e+00 -4.489673298443497274e+00 1.200477051509767108e+02 1.000000000000000000e+00
-1.439350067253066356e+00 -5.521227226749444661e+00 1.046164215198735548e+02 1.000000000000000000e+00
-9.348135505940376788e+00 -9.195113897054227436e+00 1.250977435172832628e+02 1.000000000000000000e+00
-3.099105096803858217e+01 -2.425624486357077458e+01 2.465141227104462018e+01 1.000000000000000000e+00
