4.000000000000000000e+00 2.233434453108580353e+00 -2.452857722490816350e+00 3.028685258210274611e+01 1.000000000000000000e+00
4.000000000000000000e+00 3.264435072231550716e+00 4.846085632316831648e-01 5.053748863172579320e+01 1.000000000000000000e+00
4.000000000000000000e+00 3.435435810293030912e+00 3.581822685386019112e-01 4.332093351283378979e+01 1.000000000000000000e+00
4.000000000000000000e+00 1.418066184968169630e+01 1.987356782143029799e+00 1.473694240546141145e+02 1.000000000000000000e+00
4.000000000000000000e+00 2.673671209189295350e+00 -2.662426368325159665e+00 3.661583923958048814e+01 1.000000000000000000e+00
4.000000000000000000e+00 2.053006322015081597e+00 -3.415357504395723498e-01 2.910592609242298323e+01 1.000000000000000000e+00
4.000000000000000000e+00 3.514043732090697425e+00 -2.428079865226496215e-01 4.098513120016291111e+01 1.000000000000000000e+00
4.000000000000000000e+00 2.968739842403381068e+00 -4.956121503687620222e-03 3.757375676429095535e+01 1.000000000000000000e+00
2.000000000000000000e+00 4.231179112854078994e+00 -4.245914287517258856e+00 2.267559831553057137e+01 1.000000000000000000e+00
2.000000000000000000e+00 3.976807267198162243e+00 -3.861501568082048585e+00 2.093284675297836017e+01 1.000000000000000000e+00
2.000000000000000000e+00 3.758363400731311810e+00 -3.760217890448298128e+00 2.121273480134686196e+01 1.000000000000000000e+00
2.000000000000000000e+00 6.096112626429519565e+00 1.854696094912751336e+00 2.909407877251020835e+01 1.000000000000000000e+00
2.000000000000000000e+00 4.033116273611985214e+00 -2.490020379218974789e+00 2.133259351094712741e+01 1.000000000000000000e+00
2.000000000000000000e+00 6.739863884766855051e+00 -3.445455619463990149e-01 3.138165607448243222e+01 1.000000000000000000e+00
2.000000000000000000e+00 3.402289879404777562e+00 -2.821440238151534885e+00 1.946691200159244772e+01 1.000000000000000000e+00
2.000000000000000000e+00 4.262669665777809591e+00 1.243832864900331625e+00 2.425630939656893759e+01 1.000000000000000000e+00
2.000000000000000000e+00 4.904709090662011661e+00 1.801420431946648248e+00 2.424476538438218398e+01 1.000000000000000000e+00
1.000000000000000000e+00 -2.833254271926739953e+00 -2.421377744426715495e+00 1.844882493001477997e+01 1.000000000000000000e+00
1.000000000000000000e+00 -3.257427742317048125e+00 -2.620642567073923068e+00 2.046286669756818810e+01 1.000000000000000000e+00
1.000000000000000000e+00 -2.362247715244515600e+00 -2.708732045231843966e+00 1.729533211754990418e+01 1.000000000000000000e+00
1.000000000000000000e+00 -3.464423253193761987e+00 -1.663444596799373620e+00 2.155863717174251448e+01 1.000000000000000000e+00
1.000000000000000000e+00 -2.708965159405379630e+00 -2.717918666718847298e+00 1.931227472283688584e+01 1.000000000000000000e+00
1.000000000000000000e+00 -2.961265760209453646e+00 -2.668202964800804544e+00 2.062748044001514103e+01 1.000000000000000000e+00
1.000000000000000000e+00 -2.634294109847137744e+00 -2.785200633805352322e+00 1.747055464056486684e+01 1.000000000000000000e+00
1.000000000000000000e+00 -6.576904121365169331e+00 -3.164872165228324041e-01 4.053510760054316364e+01 1.000000000000000000e+00
1.000000000000000000e+00 -4.770623483553105615e+00 1.526753201837074192e+00 3.285994827204051205e+01 1.000000000000000000e+00
1.000000000000000000e+00 -4.700139481910029282e+00 1.430330414235294612e+00 2.779508934585846092e+01 1.000000000000000000e+00
1.000000000000000000e+00 -3.366652562170030727e+00 -3.408326007802473967e+00 2.169706645328330552e+01 1.000000000000000000e+00
1.000000000000000000e+00 -1.344548736653865006e+01 -2.354882818268167755e-01 7.319091469150208695e+01 1.000000000000000000e+00
1.000000000000000000e+00 -3.941341469347923177e+00 1.226923933620022833e+00 2.315855974059772748e+01 1.000000000000000000e+00
1.000000000000000000e+00 -7.498422333277171781e+00 1.350682254357927325e+00 4.145174139584714368e+01 1.000000000000000000e+00
1.000000000000000000e+00 -5.041994866258879604e+00 1.593312675558029134e+00 3.085906910331347319e+01 1.000000000000000000e+00
1.000000000000000000e+00 -5.310324388931524808e+00 1.349520203840656185e+00 3.063626950615452671e+01 1.000000000000000000e+00
1.000000000000000000e+00 -3.746626032001758588e+00 1.822939611511702473e-01 2.582183220233983789e+01 1.000000000000000000e+00
1.000000000000000000e+00 -2.481698640171110082e+00 -3.320715757943811131e+00 1.793127106406162241e+01 1.000000000000000000e+00
1.000000000000000000e+00 -4.254718342510793505e+00 9.135220055981842224e-02 2.698874922185497738e+01 1.000000000000000000e+00
2.000000000000000000e+00 2.636362396474331238e+00 -2.224141755151073596e+00 1.628738336290372501e+01 1.000000000000000000e+00
2.000000000000000000e+00 2.616718903312156286e+00 -2.135958976636554318e+00 1.538507747504827883e+01 1.000000000000000000e+00
2.000000000000000000e+00 2.736319227146908784e+00 -2.120846066568741861e+00 1.594559605227073895e+01 1.000000000000000000e+00
2.000000000000000000e+00 2.661884911559402322e+00 -2.022979781614206995e+00 1.632576496777872066e+01 1.000000000000000000e+00
2.000000000000000000e+00 2.381007850038432849e+00 7.665306984193281936e-01 1.577044502112799051e+01 1.000000000000000000e+00
2.000000000000000000e+00 2.309070392450217835e+00 6.072752136459417249e-01 1.538298693081071100e+01 1.000000000000000000e+00
2.000000000000000000e+00 2.648774256907142632e+00 -2.658809964233882717e+00 1.617450397121299233e+01 1.000000000000000000e+00
2.000000000000000000e+00 2.518789831326256223e+00 -1.908474088999705831e+00 1.603144367354160948e+01 1.000000000000000000e+00
2.000000000000000000e+00 2.631372822770074116e+00 -2.287639011251799026e+00 1.619027849473670955e+01 1.000000000000000000e+00
2.000000000000000000e+00 2.683183421624497189e+00 9.348135341615507743e-01 1.605344715770916508e+01 1.000000000000000000e+00
2.000000000000000000e+00 3.532452374845387322e+00 1.244434038444031332e+00 1.877136961241685142e+01 1.000000000000000000e+00
1.000000000000000000e+00 -2.766709746691314642e+00 -2.383923291277890488e+00 1.813148413562159433e+01 1.000000000000000000e+00
1.000000000000000000e+00 -2.336602638815350907e+00 -2.154968582924607468e+00 1.699604964215739855e+01 1.000000000000000000e+00
1.000000000000000000e+00 -2.582247049568973551e+00 -3.009387502092965239e+00 1.879628775186032996e+01 1.000000000000000000e+00
1.000000000000000000e+00 -2.447699999544385552e+00 -2.711386703493519068e+00 1.767427584823850850e+01 1.000000000000000000e+00
1.000000000000000000e+00 -2.433810163552235117e+00 -2.464513868481919889e+00 1.769955274759750807e+01 1.000000000000000000e+00
1.000000000000000000e+00 -2.596147806261617674e+00 6.616565509156449032e-01 1.665494322454376430e+01 1.000000000000000000e+00
1.000000000000000000e+00 -2.465683532214907103e+00 4.364401894268780946e-02 1.795192602189265330e+01 1.000000000000000000e+00
1.000000000000000000e+00 -2.912780832753020910e+00 -1.452190106763130206e+00 1.864132616146943278e+01 1.000000000000000000e+00
1.000000000000000000e+00 -2.665781412776773607e+00 -1.373703457104425318e+00 1.876609056902074713e+01 1.000000000000000000e+00
1.000000000000000000e+00 -2.148968839344850501e+00 5.180158085479685814e-01 1.480853360791740414e+01 1.000000000000000000e+00
6.000000000000000000e+00 -9.106738724154892495e+00 -8.522115579471973845e+00 8.056980210620288574e+01 1.000000000000000000e+00
6.000000000000000000e+00 -5.586885178823740361e+00 -6.976382365012378628e+00 5.197141702986734657e+01 1.000000000000000000e+00
6.000000000000000000e+00 -5.271352201578075380e+00 -6.843346094715935912e+00 4.627636705759329061e+01 1.000000000000000000e+00
6.000000000000000000e+00 -6.360176166471615211e+00 -6.264208609805256067e+00 6.041299586659761900e+01 1.000000000000000000e+00
6.000000000000000000e+00 -4.736890338234430509e+00 3.753256846957580412e-02 3.842092683487761917e+01 1.000000000000000000e+00
6.000000000000000000e+00 -4.665497849734113522e+00 2.858233399173889522e-01 3.824540786663780523e+01 1.000000000000000000e+00
6.000000000000000000e+00 -2.282910838415236299e+01 -1.576062949281431758e+00 1.712434150174116496e+02 1.000000000000000000e+00
6.000000000000000000e+00 -3.934640668353762472e+00 2.598057684479964172e-02 3.462923825466173611e+01 1.000000000000000000e+00
6.000000000000000000e+00 -4.203761876820425236e+00 -3.319502330242070087e-01 3.500848482101162773e+01 1.000000000000000000e+00
6.000000000000000000e+00 -3.063240572364426484e+01 -3.725054587563862540e+00 2.287081076774509825e+02 1.000000000000000000e+00
6.000000000000000000e+00 -1.638943301199221025e+01 -7.779800332631106485e+00 1.236942745472101848e+02 1.000000000000000000e+00
4.000000000000000000e+00 2.150045174768054235e+00 -3.545610771769862613e+00 3.449601603051925736e+01 1.000000000000000000e+00
4.000000000000000000e+00 3.310071876375484834e+00 -3.809509742884004346e+00 4.660886636052743626e+01 1.000000000000000000e+00
4.000000000000000000e+00 1.151980011046042085e+00 4.270461016996211084e-02 2.222026367995556129e+01 1.000000000000000000e+00
4.000000000000000000e+00 1.541133984559445391e+00 7.500187127344681848e-02 2.455600798424578457e+01 1.000000000000000000e+00
4.000000000000000000e+00 2.213283650753144816e+00 -4.127406674888955074e+00 3.116436660120847080e+01 1.000000000000000000e+00
4.000000000000000000e+00 2.183482812416075003e+00 -2.854209069580416092e+00 2.793740475631304321e+01 1.000000000000000000e+00
4.000000000000000000e+00 2.352563067773327354e+00 -4.973375164035623186e+00 4.031677118696447337e+01 1.000000000000000000e+00
4.000000000000000000e+00 1.405062838251756929e+00 -2.224503593715023916e-02 2.499043815278953673e+01 1.000000000000000000e+00
4.000000000000000000e+00 1.402386111703366245e+00 -2.566530075396034505e+00 2.694918699341195989e+01 1.000000000000000000e+00
4.000000000000000000e+00 1.557061536558937087e+00 4.583040480584126691e-02 2.291475881422892513e+01 1.000000000000000000e+00
4.000000000000000000e+00 3.806692025693179549e+00 4.255253998863614551e-01 4.141199987866261267e+01 1.000000000000000000e+00
4.000000000000000000e+00 1.437687940750753235e+00 -2.373105568358464090e+00 2.396664762039143426e+01 1.000000000000000000e+00
4.000000000000000000e+00 3.521720159044672283e+00 -2.394029878527028199e+00 3.801679992918936790e+01 1.000000000000000000e+00
4.000000000000000000e+00 1.183996238415047975e+00 -3.587156185958902815e-02 2.407075242658642011e+01 1.000000000000000000e+00
4.000000000000000000e+00 1.377156588987184849e+00 1.650675598452908677e-01 2.244660456428334783e+01 1.000000000000000000e+00
2.000000000000000000e+00 2.841940735267197038e+00 -2.340774263542877431e+00 1.706443064379692132e+01 1.000000000000000000e+00
2.000000000000000000e+00 2.770160938060118649e+00 -2.361569536676348058e+00 1.670135961253867052e+01 1.000000000000000000e+00
2.000000000000000000e+00 2.503230335856337696e+00 7.028226487200127659e-01 1.622214482787444112e+01 1.000000000000000000e+00
2.000000000000000000e+00 2.735654673310186968e+00 8.361674939124990047e-01 1.638609560900071216e+01 1.000000000000000000e+00
2.000000000000000000e+00 2.371879642204118621e+00 -2.183351953673053902e+00 1.668861388268969392e+01 1.000000000000000000e+00
2.000000000000000000e+00 2.542844284943109212e+00 1.290687375249773179e-02 1.606947177179834085e+01 1.000000000000000000e+00
2.000000000000000000e+00 3.129442179113893996e+00 -2.457809224972157480e+00 1.722981517614144664e+01 1.000000000000000000e+00
2.000000000000000000e+00 2.723538390836120371e+00 -2.036697593023206299e+00 1.654112631107921061e+01 1.000000000000000000e+00
2.000000000000000000e+00 3.600327693275636509e+00 1.104010913106888481e+00 1.856901196414600719e+01 1.000000000000000000e+00
2.000000000000000000e+00 2.828631345334167158e+00 -2.784795609986654430e+00 1.683752331639211519e+01 1.000000000000000000e+00
2.000000000000000000e+00 3.644590041640665579e+00 3.194584871476672805e-01 1.862323551879602590e+01 1.000000000000000000e+00
2.000000000000000000e+00 3.752862197855801885e+00 1.074193094742852406e+00 1.950911155659864704e+01 1.000000000000000000e+00
2.000000000000000000e+00 3.320491650910038395e+00 1.018970459155369657e+00 1.814603144741719376e+01 1.000000000000000000e+00
2.000000000000000000e+00 4.024417691353155746e+00 -1.888323403113149279e+00 2.281659944800275852e+01 1.000000000000000000e+00
1.000000000000000000e+00 -2.576122137567879555e+00 -2.368155669899067561e+00 1.836510015767605353e+01 1.000000000000000000e+00
1.000000000000000000e+00 -3.104048358021590737e+00 -2.424655481856234474e+00 1.901152455503707017e+01 1.000000000000000000e+00
1.000000000000000000e+00 -2.868909115632978679e+00 -2.467728682461079792e+00 1.865891547959531493e+01 1.000000000000000000e+00
1.000000000000000000e+00 -2.597365788652218122e+00 -2.173948040303963491e+00 1.732539643081231517e+01 1.000000000000000000e+00
1.000000000000000000e+00 -2.541375593591108206e+00 -2.579299925535837978e+00 1.834371316437572830e+01 1.000000000000000000e+00
1.000000000000000000e+00 -2.577944410734491321e+00 -1.300683035859856673e+00 1.692378461565807513e+01 1.000000000000000000e+00
1.000000000000000000e+00 -2.724292920844505694e+00 7.242829668401461474e-01 1.733336591257386772e+01 1.000000000000000000e+00
1.000000000000000000e+00 -3.078059480468253284e+00 2.901177050809959357e-01 1.896859368039615035e+01 1.000000000000000000e+00
1.000000000000000000e+00 -2.324472854399933563e+00 7.416831032323610851e-01 1.626867578230448785e+01 1.000000000000000000e+00
1.000000000000000000e+00 -2.763153946160192831e+00 -3.062951870225728346e+00 1.949413758752983838e+01 1.000000000000000000e+00
1.000000000000000000e+00 -3.772264585422417937e+00 6.035665654970042704e-01 2.109522488000221330e+01 1.000000000000000000e+00
1.000000000000000000e+00 -2.543481918185476420e+00 6.543317790423155422e-01 1.912117972921063824e+01 1.000000000000000000e+00
1.000000000000000000e+00 -2.941329928281177786e+00 -3.039450447909525010e+00 1.926059936172273268e+01 1.000000000000000000e+00
1.000000000000000000e+00 -3.151194162575454705e+00 -1.502960886649538974e+00 1.929619384559832440e+01 1.000000000000000000e+00
1.000000000000000000e+00 -3.610400844418125921e+00 6.335191675433000658e-01 2.078668092385323618e+01 1.000000000000000000e+00
1.000000000000000000e+00 -7.791469187585548184e+00 -2.781581587960175295e+00 3.885359422253189621e+01 1.000000000000000000e+00
1.000000000000000000e+00 -1.971857951888399185e+00 -2.832168643702118876e-03 1.514039309065813832e+01 1.000000000000000000e+00
1.000000000000000000e+00 -2.841750836438342809e+00 5.809000605115600679e-01 1.772857549216932327e+01 1.000000000000000000e+00
6.000000000000000000e+00 -3.023254884905699047e+00 -3.057530051058240161e+00 2.753668187837221382e+01 1.000000000000000000e+00
6.000000000000000000e+00 -3.880756299387214892e+00 -3.439224242198423376e+00 3.770346769464864423e+01 1.000000000000000000e+00
6.000000000000000000e+00 -2.332930637793224626e+00 -3.002488361796440408e+00 2.256470679967933890e+01 1.000000000000000000e+00
6.000000000000000000e+00 -3.076163417213308993e+00 -2.601660909833269919e+00 2.925803795093433024e+01 1.000000000000000000e+00
6.000000000000000000e+00 -3.039496345598175164e+00 -2.739602129492686000e+00 2.925214409710156005e+01 1.000000000000000000e+00
6.000000000000000000e+00 -1.997536010048106103e+00 -2.118124659983761759e+00 2.069866455464935129e+01 1.000000000000000000e+00
6.000000000000000000e+00 -5.807085439029563645e+00 1.269182110178911083e-01 4.629656372748639370e+01 1.000000000000000000e+00
6.000000000000000000e+00 -2.930181819634234852e+00 -2.263076556835583730e+00 2.629189135392251941e+01 1.000000000000000000e+00
6.000000000000000000e+00 -2.247052759824877732e+00 -2.794593977333547752e+00 2.307138279362845523e+01 1.000000000000000000e+00
6.000000000000000000e+00 -3.866999164723401883e+00 -2.550743172414293269e+00 3.179971938752116145e+01 1.000000000000000000e+00
6.000000000000000000e+00 -2.989402643486905831e+01 -7.720828862332587583e+00 2.459039197883135728e+02 1.000000000000000000e+00
6.000000000000000000e+00 -4.319487124300809278e+00 -3.408293457581728525e+00 3.554538934714233278e+01 1.000000000000000000e+00
6.000000000000000000e+00 -2.986109420774161194e+00 -3.817284921309462398e+00 2.860207139240155172e+01 1.000000000000000000e+00
6.000000000000000000e+00 -1.211756489553892102e+01 -1.629649876855242763e+00 9.279489628180935767e+01 1.000000000000000000e+00
6.000000000000000000e+00 -5.716109584414262201e+00 -1.543347835980193539e+00 4.982407085173601757e+01 1.000000000000000000e+00
6.000000000000000000e+00 -4.028258899260598547e+00 -3.312757520317604065e-01 3.368798699881735814e+01 1.000000000000000000e+00
6.000000000000000000e+00 -5.373848506744727693e+00 -4.650839170346497964e-01 4.162705869859262720e+01 1.000000000000000000e+00
4.000000000000000000e+00 1.718822720349915345e+00 -3.367903418063240117e+00 2.618647266620140712e+01 1.000000000000000000e+00
4.000000000000000000e+00 1.746587017970441469e+00 -3.337120978789580583e+00 2.788949837987059155e+01 1.000000000000000000e+00
4.000000000000000000e+00 6.302400337433677890e+00 -7.626606775622636114e+00 5.974414423347967329e+01 1.000000000000000000e+00
4.000000000000000000e+00 3.245522188837828281e+00 3.771169515466243349e-01 3.834254583865363486e+01 1.000000000000000000e+00
4.000000000000000000e+00 1.627085355332235750e+00 -2.863271953135023473e+00 2.843997156157503170e+01 1.000000000000000000e+00
4.000000000000000000e+00 2.041599590323579960e+00 2.096846417698262355e-01 3.194745191652893368e+01 1.000000000000000000e+00
4.000000000000000000e+00 2.754876309222346720e+00 3.407279353598684501e-01 3.686231703992362441e+01 1.000000000000000000e+00
4.000000000000000000e+00 2.568544618056438189e+00 1.449325742899363612e-01 3.783162150509845389e+01 1.000000000000000000e+00
4.000000000000000000e+00 1.993645574428121403e+00 9.598178880795299461e-02 2.576377869342082150e+01 1.000000000000000000e+00
4.000000000000000000e+00 3.309934051783431919e+00 -2.277424063121921805e+00 3.625893771845986890e+01 1.000000000000000000e+00
2.000000000000000000e+00 2.666985769332853362e+00 -2.231583148137508577e+00 1.645184505821978860e+01 1.000000000000000000e+00
2.000000000000000000e+00 3.283021936404833863e+00 -2.443107684446209404e+00 1.761839584986831042e+01 1.000000000000000000e+00
2.000000000000000000e+00 1.233726570534416034e+00 -1.113802506866810260e+00 1.232010575360145488e+01 1.000000000000000000e+00
2.000000000000000000e+00 2.845902763688585857e+00 -2.408382922801289627e+00 1.696140341798228945e+01 1.000000000000000000e+00
2.000000000000000000e+00 3.039832878065771737e+00 9.421215872323306373e-01 1.741659676970981252e+01 1.000000000000000000e+00
2.000000000000000000e+00 2.824041264649655325e+00 -2.102075521941723757e+00 1.689958182990935853e+01 1.000000000000000000e+00
2.000000000000000000e+00 3.727762111391896394e+00 1.135594840965631791e+00 1.896176373500807699e+01 1.000000000000000000e+00
2.000000000000000000e+00 3.021020576338217634e+00 -2.398983232138218735e+00 1.688436897895008215e+01 1.000000000000000000e+00
2.000000000000000000e+00 2.687139159410160794e+00 8.849903409597281723e-01 1.694786543646923960e+01 1.000000000000000000e+00
2.000000000000000000e+00 2.559867168056933373e+00 -2.325775967143482337e+00 1.745680871498154119e+01 1.000000000000000000e+00
2.000000000000000000e+00 2.123036419495770932e+00 -1.995863092646485537e+00 1.567663296307970100e+01 1.000000000000000000e+00
2.000000000000000000e+00 2.127010489293869711e+01 -9.719862445442382537e+00 6.804902191059223071e+01 1.000000000000000000e+00
2.000000000000000000e+00 3.544009131911996846e+00 1.415212014742298408e+00 1.893237970438255147e+01 1.000000000000000000e+00
2.000000000000000000e+00 2.829129065865483295e+00 8.140325687343368255e-01 1.740420447010417249e+01 1.000000000000000000e+00
2.000000000000000000e+00 5.854867982088798328e+00 9.592361214245371803e-01 2.394372380497076946e+01 1.000000000000000000e+00
2.000000000000000000e+00 4.292335619081661946e+00 7.773783720089667559e-01 1.974658056295498199e+01 1.000000000000000000e+00
2.000000000000000000e+00 5.564748527898764507e+00 2.379526349536537300e+00 2.545133929254609839e+01 1.000000000000000000e+00
2.000000000000000000e+00 4.385573284978002029e+00 7.482689403189365374e-01 2.028215747981347405e+01 1.000000000000000000e+00
2.000000000000000000e+00 3.275567926453736511e+00 9.148859925837828921e-01 1.792071489223777903e+01 1.000000000000000000e+00
2.000000000000000000e+00 2.945346403396248647e+00 9.422243998132692200e-01 1.891109363014092182e+01 1.000000000000000000e+00
1.000000000000000000e+00 -3.702033049853772440e+01 -2.031545979655674117e+01 1.521199727250226488e+02 1.000000000000000000e+00
1.000000000000000000e+00 -1.911581121657751181e+00 -1.767914154894454137e+00 1.475677351962540484e+01 1.000000000000000000e+00
1.000000000000000000e+00 -2.148021884127205183e+00 -1.863108327443490753e+00 1.510578189216188072e+01 1.000000000000000000e+00
1.000000000000000000e+00 -2.272117638987098509e+00 -1.198946897267551437e+00 1.549812687999514615e+01 1.000000000000000000e+00
1.000000000000000000e+00 -8.220848985894487271e+01 -3.738998448295032517e+01 3.199261494398477907e+02 1.000000000000000000e+00
1.000000000000000000e+00 -2.449803064445542855e+00 -1.880697209970117356e+00 1.567018498631878742e+01 1.000000000000000000e+00
1.000000000000000000e+00 -2.574568678989155313e+00 -2.039076246251750213e+00 1.621263384766995941e+01 1.000000000000000000e+00
1.000000000000000000e+00 -2.207819261912870257e+00 -1.863716089531673781e+00 1.541696193165524420e+01 1.000000000000000000e+00
1.000000000000000000e+00 -2.398359294012706311e+00 -1.901478147507816852e+00 1.575318065735994288e+01 1.000000000000000000e+00
1.000000000000000000e+00 -3.434908722530242375e+00 -1.122963492600552449e-01 1.992311656326371150e+01 1.000000000000000000e+00
1.000000000000000000e+00 -2.453966587579874403e+00 5.982104795090997795e-01 1.603455891697645441e+01 1.000000000000000000e+00
1.000000000000000000e+00 -2.252312332749291546e+00 6.481660510482291082e-01 1.607566018855127865e+01 1.000000000000000000e+00
1.000000000000000000e+00 -4.792819973216044360e+00 1.914142641072859308e-02 2.459882451229847788e+01 1.000000000000000000e+00
1.000000000000000000e+00 -4.891277595731340355e+00 8.156979794637889691e-01 2.436435488185945530e+01 1.000000000000000000e+00
1.000000000000000000e+00 -1.740399240497181532e+00 -1.889656564755121559e+00 1.441336125426818526e+01 1.000000000000000000e+00
1.000000000000000000e+00 -2.404988861421928359e+00 6.200045389927457684e-01 1.624628339358104867e+01 1.000000000000000000e+00
1.000000000000000000e+00 -2.007220379595318072e+00 -1.943995078301788082e+00 1.526437385138083691e+01 1.000000000000000000e+00
1.000000000000000000e+00 -2.022576916145702786e+00 -1.635106054913437967e+00 1.404847722906425034e+01 1.000000000000000000e+00
1.000000000000000000e+00 -2.985452626325891590e+00 8.968319774179890347e-01 1.914667618002745542e+01 1.000000000000000000e+00
6.000000000000000000e+00 -3.502056754650708204e+00 -3.427248747910543791e+00 3.311598349670657626e+01 1.000000000000000000e+00
6.000000000000000000e+00 -2.923263752581859887e+00 -3.836806619473592139e+00 2.742611040886018259e+01 1.000000000000000000e+00
6.000000000000000000e+00 -3.351345812548259140e+00 -2.820328228943728810e+00 3.153990897995588583e+01 1.000000000000000000e+00
6.000000000000000000e+00 -2.667179081607589541e+00 -2.258849050752822940e+00 2.451328307066829026e+01 1.000000000000000000e+00
6.000000000000000000e+00 -7.990427848064057592e+00 3.063903400208497496e-01 6.202727111958997597e+01 1.000000000000000000e+00
6.000000000000000000e+00 -2.090578963658585643e+00 -2.240230784093216077e+00 2.158884074453093405e+01 1.000000000000000000e+00
6.000000000000000000e+00 -7.516002050333809414e+00 -5.240013555404297918e+00 6.043406965981036194e+01 1.000000000000000000e+00
6.000000000000000000e+00 -4.002096192311225487e+00 -3.443775075821657872e-01 3.341960959729502889e+01 1.000000000000000000e+00
6.000000000000000000e+00 -2.583857902331898604e+00 -3.357584241401990077e+00 2.561099959727648212e+01 1.000000000000000000e+00
6.000000000000000000e+00 -6.212922616117896091e+00 -2.961756627995363877e-01 5.172152154591775997e+01 1.000000000000000000e+00
6.000000000000000000e+00 -2.948301213290148937e+00 -2.397977213619044257e+00 2.578257752354925714e+01 1.000000000000000000e+00
6.000000000000000000e+00 -7.196802547192041821e+00 -1.149682502405989570e+00 5.669276297790275265e+01 1.000000000000000000e+00
4.000000000000000000e+00 2.246934884245729069e+00 1.390481006026875188e-01 2.954184239738821560e+01 1.000000000000000000e+00
4.000000000000000000e+00 1.828085733979054828e+00 -3.262254599494144536e+00 2.797714013439397363e+01 1.000000000000000000e+00
4.000000000000000000e+00 1.725814082169744079e+00 -2.904265277440138515e+00 2.823983697174937646e+01 1.000000000000000000e+00
4.000000000000000000e+00 2.013348725758293156e+00 -3.837622548351292018e+00 2.903930339478936418e+01 1.000000000000000000e+00
4.000000000000000000e+00 1.736993546656140586e+00 -2.740025557723398120e-02 2.896247920705609502e+01 1.000000000000000000e+00
4.000000000000000000e+00 1.921492828276591958e+00 -2.915128868259622141e+00 2.888298082317487214e+01 1.000000000000000000e+00
4.000000000000000000e+00 1.815041990808953454e+00 -2.168609520800707791e-01 2.771294037299002611e+01 1.000000000000000000e+00
4.000000000000000000e+00 1.895708339619939453e+00 -5.051838092084722787e-01 2.982525369679482452e+01 1.000000000000000000e+00
4.000000000000000000e+00 3.666736821470872876e+00 -2.517472847961805371e+00 3.913357706839635597e+01 1.000000000000000000e+00
4.000000000000000000e+00 2.135988788829127571e+00 -3.738287420662403715e+00 2.925645293628922161e+01 1.000000000000000000e+00
4.000000000000000000e+00 2.297571283701816292e+00 -3.024069579809748554e+00 3.012597475519608636e+01 1.000000000000000000e+00
4.000000000000000000e+00 2.450783243790742194e+00 -4.569828575037305218e-01 3.262734082207144581e+01 1.000000000000000000e+00
4.000000000000000000e+00 3.096500711377291992e+00 -2.662094551410983390e-01 3.568964249822448664e+01 1.000000000000000000e+00
4.000000000000000000e+00 2.463181703857539429e+00 -2.051602780591422093e+00 3.130798513315053455e+01 1.000000000000000000e+00
2.000000000000000000e+00 2.779615307041283678e+00 -2.107161420580987432e+00 1.678585586433626275e+01 1.000000000000000000e+00
2.000000000000000000e+00 2.867330025711642083e+00 8.585987726314125990e-01 1.686658999768381761e+01 1.000000000000000000e+00
2.000000000000000000e+00 2.640156355771054564e+00 7.221888077144931195e-01 1.675901729120069561e+01 1.000000000000000000e+00
2.000000000000000000e+00 2.897778815607229941e+00 -2.360480071125710122e+00 1.655549212610311471e+01 1.000000000000000000e+00
2.000000000000000000e+00 2.867361790440407621e+00 -2.448206957040814924e+00 1.705343162218493447e+01 1.000000000000000000e+00
2.000000000000000000e+00 2.803589510208346347e+00 6.948824811723530726e-01 1.663922098658624904e+01 1.000000000000000000e+00
1.000000000000000000e+00 -2.183999152869473104e+00 -1.867007112341431130e+00 1.535648850680306943e+01 1.000000000000000000e+00
1.000000000000000000e+00 -2.203388197403223003e+00 -1.840412962227836013e+00 1.521090613271863923e+01 1.000000000000000000e+00
1.000000000000000000e+00 -2.382639502508393292e+00 -1.741481713637544448e+00 1.612866871837615790e+01 1.000000000000000000e+00
1.000000000000000000e+00 -2.414621449501227701e+00 5.386954345173843306e-01 1.575297581140967118e+01 1.000000000000000000e+00
1.000000000000000000e+00 -2.417432154532399124e+00 4.116151992830791029e-01 1.574173409880903840e+01 1.000000000000000000e+00
1.000000000000000000e+00 -2.349932893034478720e+00 5.925203210541791776e-01 1.621269504022382790e+01 1.000000000000000000e+00
6.000000000000000000e+00 -3.467604376496841834e+00 -3.024735351328696087e+00 3.092020966702551732e+01 1.000000000000000000e+00
6.000000000000000000e+00 -2.422275374702390405e+00 -3.226889812516990919e+00 2.520613184529328166e+01 1.000000000000000000e+00
6.000000000000000000e+00 -2.596565846668966060e+00 -2.589919003392411323e+00 2.594305523152947401e+01 1.000000000000000000e+00
6.000000000000000000e+00 -3.311433086016605021e+00 -3.533554575243924134e+00 2.992892909039892402e+01 1.000000000000000000e+00
6.000000000000000000e+00 -2.503320433948017953e+00 -3.338261972485732976e+00 2.446693782489796121e+01 1.000000000000000000e+00
6.000000000000000000e+00 -2.739131758367530978e+00 -2.988811486968498521e+00 2.712181085806550840e+01 1.000000000000000000e+00
6.000000000000000000e+00 -3.294626839451090206e+01 -4.540823529814238313e+00 2.610621062822642102e+02 1.000000000000000000e+00
6.000000000000000000e+00 -3.100191277928190825e+00 -2.596136501536006946e+00 2.713931289748215292e+01 1.000000000000000000e+00
6.000000000000000000e+00 -2.601874140994735018e+00 -2.436370582656673722e+00 2.576172571852678317e+01 1.000000000000000000e+00
6.000000000000000000e+00 -2.398291613605479000e+01 -1.931433245023957568e+01 1.970627387405431534e+02 1.000000000000000000e+00
6.000000000000000000e+00 -2.339998807060230224e+00 -3.241002204635319295e+00 2.392946532396244308e+01 1.000000000000000000e+00
6.000000000000000000e+00 -1.259345691053892402e+01 -8.683973597306025027e+00 9.808803703149449404e+01 1.000000000000000000e+00
6.000000000000000000e+00 -1.314713798617615303e+01 -8.342594695908453484e-02 9.851915522620632260e+01 1.000000000000000000e+00
6.000000000000000000e+00 -4.357695426399034488e+01 2.155660144141899326e-01 3.317601844580474904e+02 1.000000000000000000e+00
6.000000000000000000e+00 -2.451608784867869151e+00 -2.804142532829314582e+00 2.440265529938360700e+01 1.000000000000000000e+00
6.000000000000000000e+00 -1.162281721992316541e+01 -1.766923429170186743e+00 8.825778046772609287e+01 1.000000000000000000e+00
4.000000000000000000e+00 3.446072533816837424e+00 2.959444816999390881e-01 3.692404246335831886e+01 1.000000000000000000e+00
4.000000000000000000e+00 1.218424520454098658e+00 -2.539596063026299699e+00 2.267793362287313030e+01 1.000000000000000000e+00
4.000000000000000000e+00 1.474571761572520234e+00 3.084917085882017164e-03 2.630389160050716768e+01 1.000000000000000000e+00
4.000000000000000000e+00 1.131215521081034403e+00 -2.634209228632316879e+00 2.149033024838944783e+01 1.000000000000000000e+00
4.000000000000000000e+00 2.174430698612911605e+00 1.168177090371594062e-01 3.045525910743894826e+01 1.000000000000000000e+00
4.000000000000000000e+00 2.279066625680246094e+00 2.710398150421601815e-01 3.105595265682249462e+01 1.000000000000000000e+00
4.000000000000000000e+00 1.730837625013339709e+00 -2.742476449129184202e-01 2.683211959775836064e+01 1.000000000000000000e+00
4.000000000000000000e+00 3.281453059597005950e+00 2.915055682718303842e-01 3.767238507657563673e+01 1.000000000000000000e+00
4.000000000000000000e+00 1.450645344148922211e+00 -5.365155163719190767e-01 2.554678853926990811e+01 1.000000000000000000e+00
4.000000000000000000e+00 2.029235309168365031e+00 -4.853078919799336255e-01 2.892570298100121207e+01 1.000000000000000000e+00
4.000000000000000000e+00 1.393382535002220202e+00 -2.791179691708583377e+00 2.310678278334804503e+01 1.000000000000000000e+00
4.000000000000000000e+00 8.480580213459655292e-01 -2.141931309361920110e+00 1.938082747507222692e+01 1.000000000000000000e+00
2.000000000000000000e+00 2.558955045379545545e+00 -2.014993905302437049e+00 1.619647304557433287e+01 1.000000000000000000e+00
2.000000000000000000e+00 2.742787098906294130e+00 6.688891069743694295e-01 1.647320147975716154e+01 1.000000000000000000e+00
2.000000000000000000e+00 2.422571949477440256e+00 8.081833136653443495e-01 1.616259260466609504e+01 1.000000000000000000e+00
2.000000000000000000e+00 2.526747517130911280e+00 6.643738603780580121e-01 1.641707493922432093e+01 1.000000000000000000e+00
2.000000000000000000e+00 2.753265236888716494e+00 9.606035026196561022e-01 1.650820741030381811e+01 1.000000000000000000e+00
2.000000000000000000e+00 2.457402373220936909e+00 7.529794778822324064e-01 1.625316062742787793e+01 1.000000000000000000e+00
2.000000000000000000e+00 2.448799147649426633e+00 7.174175654835065474e-01 1.591552223756647422e+01 1.000000000000000000e+00
2.000000000000000000e+00 2.633172811665767554e+00 9.341280102986254663e-01 1.657638268018541794e+01 1.000000000000000000e+00
2.000000000000000000e+00 2.559930476121162979e+00 6.485218043495168949e-01 1.670206277533287675e+01 1.000000000000000000e+00
1.000000000000000000e+00 -2.552142658619378501e+00 -2.145076696623715140e+00 1.668678374207265946e+01 1.000000000000000000e+00
1.000000000000000000e+00 -2.154318726097598002e+00 -2.111925712706025138e+00 1.605910261976067588e+01 1.000000000000000000e+00
1.000000000000000000e+00 -2.644482383795690339e+00 -2.052637286165327257e+00 1.649911671635310384e+01 1.000000000000000000e+00
1.000000000000000000e+00 -2.514015752416888017e+00 7.377810768949055742e-01 1.715109750460204552e+01 1.000000000000000000e+00
1.000000000000000000e+00 -2.255869604164159714e+00 -1.265769311541524944e+00 1.641744672601267041e+01 1.000000000000000000e+00
1.000000000000000000e+00 -2.323967790755644636e+00 -1.746409520263010107e+00 1.596770834346702905e+01 1.000000000000000000e+00
1.000000000000000000e+00 -1.222356244002887671e+01 -5.990523814807806602e+00 5.079658459549799687e+01 1.000000000000000000e+00
1.000000000000000000e+00 -3.305965250480860096e+00 4.129903681161187223e-01 1.919336371257277563e+01 1.000000000000000000e+00
1.000000000000000000e+00 -2.051239577900626276e+00 -1.508926774446735175e+00 1.549149253348858402e+01 1.000000000000000000e+00
1.000000000000000000e+00 -2.650268095278548230e+00 8.667791461927732977e-01 1.748883032446360275e+01 1.000000000000000000e+00
1.000000000000000000e+00 -1.488449376588541817e+01 -7.177428071423956446e+00 5.898170939960694881e+01 1.000000000000000000e+00
1.000000000000000000e+00 -2.710867768819972934e+00 5.287279111535950760e-01 1.686391387433515376e+01 1.000000000000000000e+00
1.000000000000000000e+00 -2.429742046438593484e+00 -2.246855959155862337e+00 1.650081829763338703e+01 1.000000000000000000e+00
1.000000000000000000e+00 -3.002775015219050658e+00 7.914945246304534443e-01 1.796324844811371690e+01 1.000000000000000000e+00
6.000000000000000000e+00 -2.870741445324898500e+00 -1.982238485977410591e-01 2.647592503709509870e+01 1.000000000000000000e+00
6.000000000000000000e+00 -1.118344205760496735e+01 -9.168577332570762906e+00 8.356902955318965098e+01 1.000000000000000000e+00
6.000000000000000000e+00 -6.658242874856623139e+00 -9.408121161078497607e+00 5.727931883887507780e+01 1.000000000000000000e+00
6.000000000000000000e+00 -6.236483739667837867e+00 -9.208029958927641090e+00 5.621959037647463475e+01 1.000000000000000000e+00
6.000000000000000000e+00 -3.106572980499165304e+00 -2.096613949685768308e-01 2.738016068807942460e+01 1.000000000000000000e+00
6.000000000000000000e+00 -3.380868654182529021e+00 -4.248289072171244213e-02 2.923473853648564358e+01 1.000000000000000000e+00
6.000000000000000000e+00 -6.555909521532468531e+00 -1.440507208319105725e+00 5.079568255632923268e+01 1.000000000000000000e+00
6.000000000000000000e+00 -3.322905173778082144e+00 7.213437596743323132e-02 2.903370621902923432e+01 1.000000000000000000e+00
6.000000000000000000e+00 -1.952266313203128378e+00 -2.655707992810623641e-01 2.066139822423939520e+01 1.000000000000000000e+00
6.000000000000000000e+00 -3.381877640920643913e+00 -3.525763496717472800e-01 2.979527654763154842e+01 1.000000000000000000e+00
6.000000000000000000e+00 -2.299204826991553485e+00 -4.285322936889464085e-01 2.300417691787601271e+01 1.000000000000000000e+00
6.000000000000000000e+00 -4.438135971997615670e+00 -9.378501867469399844e-01 4.000907120403847728e+01 1.000000000000000000e+00
6.000000000000000000e+00 -5.658667930234921428e+00 -1.080698379089318539e+00 4.600007912590976389e+01 1.000000000000000000e+00
6.000000000000000000e+00 -1.420405742441397301e+01 -1.687640497155107155e+01 1.179064246338254236e+02 1.000000000000000000e+00
4.000000000000000000e+00 1.931341276663261830e+00 -3.337854183798298457e+00 2.831626917264489762e+01 1.000000000000000000e+00
4.000000000000000000e+00 1.355830776171397245e+00 -2.971361166294607739e-02 2.177878054840748945e+01 1.000000000000000000e+00
4.000000000000000000e+00 2.794072726466686252e+00 -4.698947631712293571e+00 3.630455072179435660e+01 1.000000000000000000e+00
4.000000000000000000e+00 1.915853411643063220e+00 -3.008239432665218427e+00 2.800159424618446025e+01 1.000000000000000000e+00
4.000000000000000000e+00 9.658159798756540404e-01 -1.975488223502686602e-01 1.927006504604236881e+01 1.000000000000000000e+00
4.000000000000000000e+00 8.289487289652890389e-01 -1.667188603322939944e-01 2.056725595527812445e+01 1.000000000000000000e+00
4.000000000000000000e+00 1.094390687861138911e+00 -5.922359857155186369e-02 2.156990280715810115e+01 1.000000000000000000e+00
4.000000000000000000e+00 2.004955437318494127e+00 -3.540657397044639332e+00 2.842102805067073135e+01 1.000000000000000000e+00
4.000000000000000000e+00 2.121224107768340694e+00 -3.701221279649110407e+00 2.809787984910828129e+01 1.000000000000000000e+00
4.000000000000000000e+00 1.100045531305023472e+00 -3.426899628421273269e-01 2.172959659528454068e+01 1.000000000000000000e+00
4.000000000000000000e+00 1.367133178185797382e+00 -4.022386021436130665e-01 2.214358275148688548e+01 1.000000000000000000e+00
4.000000000000000000e+00 1.127583277747798540e+00 -6.873954423056883867e-01 2.236622456958861349e+01 1.000000000000000000e+00
4.000000000000000000e+00 9.928360428735539811e-01 -5.394715934671067137e-01 2.159776740029447595e+01 1.000000000000000000e+00
4.000000000000000000e+00 3.223966084986682024e+00 -2.729944964818896480e+00 3.387850192364298607e+01 1.000000000000000000e+00
4.000000000000000000e+00 8.880098552169617410e-01 -1.330950242588504195e-01 2.194693904360141445e+01 1.000000000000000000e+00
1.000000000000000000e+00 -3.394179599379417045e+00 -1.888333594996769893e+00 1.940358997859304324e+01 1.000000000000000000e+00
1.000000000000000000e+00 -2.209626123045929980e+00 5.785118091378461669e-01 1.599743046656510970e+01 1.000000000000000000e+00
1.000000000000000000e+00 -4.210088587213399514e+00 3.822197455678250089e-01 2.146179676572798201e+01 1.000000000000000000e+00
1.000000000000000000e+00 -4.210362940442377244e+00 2.365110248866856557e-01 2.132393375771486888e+01 1.000000000000000000e+00
1.000000000000000000e+00 -2.526486023881401977e+00 5.920867323621108458e-01 1.606803765810049711e+01 1.000000000000000000e+00
1.000000000000000000e+00 -2.643368709103207426e+00 5.221332355550195592e-01 1.667300660843232407e+01 1.000000000000000000e+00
1.000000000000000000e+00 -1.825831337161198720e+00 2.009846212295036960e-01 1.468596473764585220e+01 1.000000000000000000e+00
1.000000000000000000e+00 -6.649717744282906295e+00 -1.443713872738987769e+00 2.913036988244443393e+01 1.000000000000000000e+00
1.000000000000000000e+00 -2.099030403878918261e+00 4.697911004417788527e-01 1.628175622701916936e+01 1.000000000000000000e+00
1.000000000000000000e+00 -2.711440911956258581e+00 -1.972282664588595358e+00 1.829818606062038100e+01 1.000000000000000000e+00
1.000000000000000000e+00 -3.863709236880636944e+00 6.387656410880377944e-01 2.000766638662105024e+01 1.000000000000000000e+00
1.000000000000000000e+00 -2.130722501377523059e+00 4.115509250093558613e-01 1.553428715979461217e+01 1.000000000000000000e+00
1.000000000000000000e+00 -2.388471711459411839e+00 4.984721971756464476e-01 1.582680272214305361e+01 1.000000000000000000e+00
1.000000000000000000e+00 -5.573020466221971780e+00 -5.557065654530547461e-01 2.522385351083010718e+01 1.000000000000000000e+00
1.000000000000000000e+00 -3.248246052402828710e+00 3.360022163543098239e-01 2.083587625801432353e+01 1.000000000000000000e+00
1.000000000000000000e+00 -1.213795085599292634e+01 -4.562794405930545416e+00 4.667815241844620999e+01 1.000000000000000000e+00
1.000000000000000000e+00 -5.382392155127690536e+00 -5.658165987859145041e-01 2.526375678215667975e+01 1.000000000000000000e+00
1.000000000000000000e+00 -5.849089278367711309e+00 -1.239954370910479442e+00 2.609845485832531509e+01 1.000000000000000000e+00
6.000000000000000000e+00 -2.349833146842972287e+00 -2.721716533981370034e+00 2.571747426546355442e+01 1.000000000000000000e+00
6.000000000000000000e+00 -2.988272117351548296e+00 -2.437235847393496524e+00 2.788947597289547531e+01 1.000000000000000000e+00
6.000000000000000000e+00 -2.546690665403668508e+00 -2.943483120881061676e+00 2.675006973124953191e+01 1.000000000000000000e+00
6.000000000000000000e+00 -2.824160148251977809e+00 -3.896019844864628379e+00 2.789371054662083083e+01 1.000000000000000000e+00
6.000000000000000000e+00 -2.227871256449005966e+00 -2.292031074220302500e+00 2.415246427037170918e+01 1.000000000000000000e+00
6.000000000000000000e+00 -2.280468276664301186e+00 -2.993695428705164918e+00 2.472409436431473040e+01 1.000000000000000000e+00
6.000000000000000000e+00 -2.300871928462375759e+00 -3.118820145005313904e+00 2.481556167427960702e+01 1.000000000000000000e+00
6.000000000000000000e+00 -2.339396679238345822e+00 -1.852883327827602011e+00 2.457062749336907359e+01 1.000000000000000000e+00
6.000000000000000000e+00 -2.532430390420426392e+00 -9.145395763201529249e-01 2.578735353298009159e+01 1.000000000000000000e+00
6.000000000000000000e+00 -2.511654904153161727e+00 -1.703140499524163021e+00 2.456131630602697413e+01 1.000000000000000000e+00
6.000000000000000000e+00 -2.683047727966394902e+00 -3.841488413317511785e+00 2.761544497835135559e+01 1.000000000000000000e+00
6.000000000000000000e+00 -6.122201815999922303e+00 3.428871159638288146e-01 4.940106772372526933e+01 1.000000000000000000e+00
6.000000000000000000e+00 -2.289109711714053752e+00 -2.648860972825263893e+00 2.402511168193775859e+01 1.000000000000000000e+00
6.000000000000000000e+00 -3.449103755722652487e+00 -6.921176254589735954e-01 3.064517361792799122e+01 1.000000000000000000e+00
4.000000000000000000e+00 2.493138545620192659e+00 2.190449059761460371e-01 2.990503763069492038e+01 1.000000000000000000e+00
4.000000000000000000e+00 2.280242223766589138e+00 -3.804226010666269087e+00 2.900069445170075255e+01 1.000000000000000000e+00
4.000000000000000000e+00 2.352920922537768966e+00 -4.047378326243167734e+00 3.037982770101977081e+01 1.000000000000000000e+00
4.000000000000000000e+00 1.995740340605244967e+00 -3.339312789334328624e+00 2.862443126587250575e+01 1.000000000000000000e+00
4.000000000000000000e+00 2.075050614798668480e+00 1.166066451322846642e-01 2.883510015005923677e+01 1.000000000000000000e+00
4.000000000000000000e+00 3.201097959935260917e+00 -2.879744464049218688e+00 3.416047708852093479e+01 1.000000000000000000e+00
4.000000000000000000e+00 2.011602875434546966e+00 6.073023955708058141e-03 2.994215051587768173e+01 1.000000000000000000e+00
4.000000000000000000e+00 2.420243719244695058e+00 3.705298995729238709e-01 3.139297009292540608e+01 1.000000000000000000e+00
4.000000000000000000e+00 3.318243531220363529e+00 -8.302971565586948488e-01 3.509143596460709347e+01 1.000000000000000000e+00
4.000000000000000000e+00 1.959778348629314770e+00 -2.050120466032049615e-01 2.818467258303172329e+01 1.000000000000000000e+00
4.000000000000000000e+00 5.219899515886869956e+00 6.237726221566600726e-01 4.775713094778380707e+01 1.000000000000000000e+00
4.000000000000000000e+00 2.182726503835029863e+00 -7.697068231821518891e-01 3.046821894478436832e+01 1.000000000000000000e+00
1.000000000000000000e+00 -2.232615527229028007e+00 -2.677378569685889276e-01 1.594482592281241651e+01 1.000000000000000000e+00
1.000000000000000000e+00 -1.947034625589440626e+00 -1.486604268445462562e+00 1.544987910370144490e+01 1.000000000000000000e+00
1.000000000000000000e+00 -5.668902056128447775e+00 -1.699366574841195243e+00 2.483605661514323870e+01 1.000000000000000000e+00
6.000000000000000000e+00 -3.060337182126504629e+00 -2.495637387104776117e+00 2.841548156288924432e+01 1.000000000000000000e+00
6.000000000000000000e+00 -3.306542955116336113e+00 -3.594237818845642085e+00 3.067853543213477963e+01 1.000000000000000000e+00
6.000000000000000000e+00 -3.365343728118676658e+00 -4.657030426233551346e+00 3.183423993889801906e+01 1.000000000000000000e+00
6.000000000000000000e+00 -2.591550913400932021e+00 -2.981079846418433821e+00 2.704850242620680945e+01 1.000000000000000000e+00
6.000000000000000000e+00 -2.932713477814223424e+00 -3.017735226866181009e+00 2.976806901914387637e+01 1.000000000000000000e+00
6.000000000000000000e+00 -3.499455705308892384e+00 -2.739165266628988071e+00 3.172883421299578899e+01 1.000000000000000000e+00
6.000000000000000000e+00 -7.329593588449005104e+00 -6.550760244681064215e+00 6.398488055542922126e+01 1.000000000000000000e+00
6.000000000000000000e+00 -3.435921574500741205e+00 -2.818593272348752787e+00 3.003439219808230831e+01 1.000000000000000000e+00
6.000000000000000000e+00 -3.538873059865190296e+00 1.632870953072244613e-01 3.072632336977529377e+01 1.000000000000000000e+00
6.000000000000000000e+00 -3.284952558545008561e+00 -3.109579267998196173e+00 3.200842711696147092e+01 1.000000000000000000e+00
6.000000000000000000e+00 -2.896251489678071778e+00 -4.244604153838190674e-01 2.779045531588899465e+01 1.000000000000000000e+00
6.000000000000000000e+00 -3.233456211035216743e+00 -4.310241343247945167e+00 3.234158363622407251e+01 1.000000000000000000e+00
6.000000000000000000e+00 -3.682971753289020267e+00 -1.057244775338263221e+00 3.240149386372425511e+01 1.000000000000000000e+00
6.000000000000000000e+00 -3.110669122291206179e+00 -8.746139960063775698e-01 2.777007231225432449e+01 1.000000000000000000e+00
6.000000000000000000e+00 -2.874306221517792803e+00 -1.183156057723821625e-01 2.805024597959553390e+01 1.000000000000000000e+00
6.000000000000000000e+00 -3.618072276062810122e+00 -2.338840620488794819e+00 3.229154365774304125e+01 1.000000000000000000e+00
6.000000000000000000e+00 -2.608744608990817504e+00 -9.281848222658856118e-01 2.636121237642975501e+01 1.000000000000000000e+00
6.000000000000000000e+00 -2.079965350621906683e+00 -4.617292145960912864e-01 2.201539453798979906e+01 1.000000000000000000e+00
6.000000000000000000e+00 -6.296709333300960942e+00 -1.892366174904703602e+00 5.772302140287322914e+01 1.000000000000000000e+00
6.000000000000000000e+00 -2.883928632392149805e+00 -3.307016643163438907e+00 2.833683902371330277e+01 1.000000000000000000e+00
4.000000000000000000e+00 2.198321289757348307e+00 -3.755491248279071659e+00 3.065998845673645334e+01 1.000000000000000000e+00
4.000000000000000000e+00 1.813000864717153382e+00 1.056400911699826861e-01 2.853496477098212480e+01 1.000000000000000000e+00
4.000000000000000000e+00 2.392075838811993815e+00 -3.866159356456024376e+00 3.116172484394564890e+01 1.000000000000000000e+00
4.000000000000000000e+00 2.325145970190989786e+00 1.787295622854004340e-01 3.051668878720397160e+01 1.000000000000000000e+00
4.000000000000000000e+00 3.060138429905741919e+00 -4.684365582881710566e+00 3.394915847424060473e+01 1.000000000000000000e+00
4.000000000000000000e+00 2.415635536964183760e+00 9.516368132300044580e-02 3.290500040711651053e+01 1.000000000000000000e+00
4.000000000000000000e+00 5.600047329653238926e+00 2.622674410358612901e-02 4.798613217073491199e+01 1.000000000000000000e+00
4.000000000000000000e+00 2.314539200149708265e+00 3.302889270408058686e-01 3.065241689989608886e+01 1.000000000000000000e+00
4.000000000000000000e+00 2.610404772351901048e+00 -4.376541514796594257e+00 3.215244833779288314e+01 1.000000000000000000e+00
4.000000000000000000e+00 2.347858370090916580e+00 -1.479446191071189798e-01 3.082622718709795251e+01 1.000000000000000000e+00
4.000000000000000000e+00 2.508955723962248197e+00 -6.154684894908137860e-01 2.957180526954990540e+01 1.000000000000000000e+00
4.000000000000000000e+00 3.484074655765444728e+00 -2.860836718961922820e+00 3.617235771388027388e+01 1.000000000000000000e+00
4.000000000000000000e+00 4.939890520534444107e+00 -3.033474326822804379e+00 4.258010830352218790e+01 1.000000000000000000e+00
4.000000000000000000e+00 2.590409515788724804e+00 8.459180848899566785e-02 3.106509413318870827e+01 1.000000000000000000e+00
